-0.04261570 0.03591700 -0.02713020
-0.00570250 0.12744001 -0.00517306
0.00795806 0.12719500 -0.00506697
0.01836510 0.12475700 -0.00246117
0.02108130 0.12385200 -0.00148905
-0.01587110 0.09411720 -0.03382610
0.02451370 0.10239200 -0.01840720
0.05740710 0.06913430 0.00477569
-0.00023381 0.12383100 -0.00932637
-0.06255520 0.17683899 -0.06116710
0.01796090 0.12010000 -0.00942839
-0.05126630 0.12651999 -0.00563382
-0.04689880 0.12676100 -0.00595632
-0.04178060 0.12640400 -0.00562318
-0.03688340 0.12557800 -0.00482073
-0.03419920 0.12463700 -0.00378015
-0.01245440 0.12571099 -0.00519106
-0.00446177 0.12682000 -0.00651375
-0.00058214 0.03474820 -0.02368970
-0.00357674 0.03472860 -0.02399150
-0.00757151 0.03469220 -0.02445990
-0.01557860 0.03481810 -0.02596920
-0.02249060 0.03485100 -0.02817990
0.01426080 0.03598160 -0.02033720
0.01038480 0.03606000 -0.02243930
0.00941160 0.03605430 -0.02278220
0.00840449 0.03608380 -0.02298640
-0.00358089 0.03619700 -0.02482620
-0.05185180 0.09707320 -0.02220630
-0.02558950 0.03655460 -0.02925810
-0.03216880 0.17116800 -0.01591500
-0.05890700 0.09834130 -0.01958050
0.01340570 0.03741270 -0.02193660
0.00942462 0.03751160 -0.02327000
0.00240690 0.03763300 -0.02456250
-0.00659114 0.03769000 -0.02543520
-0.02559930 0.03797400 -0.02909400
-0.06985030 0.09802410 -0.01552400
-0.04855780 0.03617570 -0.01246610
0.00110427 0.11158500 -0.02012540
-0.08290900 0.12359400 -0.00426589
-0.06551750 0.03561650 -0.00754656
0.02346050 0.03678010 -0.00165856
-0.00659427 0.03914480 -0.02573940
-0.03260380 0.03949900 -0.03027080
-0.02913650 0.16522500 -0.01618600
-0.05751720 0.03733500 -0.01019010
-0.06148000 0.03718660 -0.00855801
-0.06348800 0.03709400 -0.00797583
-0.07068390 0.03633720 -0.00115986
-0.01614510 0.16679201 -0.01998660
0.00239673 0.04049320 -0.02445020
-0.00160432 0.04055250 -0.02519880
-0.02361230 0.04084780 -0.02908460
-0.02560810 0.04085360 -0.02924070
-0.02961690 0.04088920 -0.02982490
-0.03361340 0.04088990 -0.02989350
-0.03660320 0.04077840 -0.02898920
-0.02019050 0.17269801 -0.02178580
-0.05255140 0.03894810 -0.01139950
-0.05950620 0.03865740 -0.00901889
-0.06249300 0.03855060 -0.00796777
-0.06450610 0.03846740 -0.00726163
-0.06836440 0.03812810 -0.00463362
-0.06955010 0.03784810 -0.00149869
-0.07056920 0.03777800 -0.00083324
0.03341880 0.03993870 -0.00226403
-0.01714720 0.16677800 -0.01961360
-0.05107370 0.15165401 -0.00393732
0.01641290 0.04178340 -0.02250680
0.01543040 0.04179210 -0.02294290
0.00539692 0.04189240 -0.02401970
-0.00560579 0.04200700 -0.02565040
-0.02261370 0.04226360 -0.02887340
-0.02461310 0.04226590 -0.02899780
0.01820470 0.10031300 -0.02245970
-0.06088860 0.10544500 -0.01776060
-0.01119490 0.17845300 -0.02962950
-0.05588570 0.09702020 -0.02122390
-0.05256170 0.04035410 -0.01091450
-0.05354270 0.04029570 -0.01060630
-0.05852800 0.04009240 -0.00880200
-0.06351750 0.03990790 -0.00714576
-0.06744690 0.03963670 -0.00494886
-0.01176610 0.18238901 -0.02874960
-0.07161940 0.03829390 0.00070665
0.03839930 0.04135210 -0.00190432
0.03740100 0.04141310 -0.00242752
0.03642840 0.04138430 -0.00274773
-0.00460043 0.04341810 -0.02586830
-0.01060920 0.04344440 -0.02622700
-0.01761050 0.04359920 -0.02766330
-0.01961840 0.04363800 -0.02813820
-0.02461910 0.04367020 -0.02864230
-0.02762440 0.04365940 -0.02893910
-0.05788600 0.09696980 -0.02067310
-0.02188100 0.10726700 -0.02208710
-0.02218450 0.17269100 -0.02089180
-0.06595990 0.12823500 -0.00885739
-0.04956020 0.04182480 -0.01101920
-0.07119980 0.15079001 -0.04346240
-0.06351370 0.04126270 -0.00639269
-0.06449410 0.04120410 -0.00599039
-0.08482940 0.11131200 0.04221650
-0.04216650 0.16366000 -0.01073420
0.03839160 0.04296800 -0.00337479
0.03041280 0.04310040 -0.00513240
0.02647060 0.04305240 -0.00597567
-0.03292490 0.03699270 0.05034120
-0.01814650 0.16677301 -0.01923590
-0.06003990 0.13696000 -0.00647222
0.01738310 0.04475780 -0.02325430
0.01540000 0.04481310 -0.02405730
0.00339515 0.04484310 -0.02587960
-0.00762589 0.04517430 -0.02866200
-0.02562210 0.04501940 -0.02807880
-0.03435420 0.03679770 0.04846440
-0.09059470 0.11583300 0.04265690
-0.03185180 0.10006300 -0.02267800
0.04037070 0.04448340 -0.00362771
0.03838870 0.04454170 -0.00444706
0.00036867 0.04663230 -0.02868910
-0.02261790 0.04643630 -0.02756470
-0.02562290 0.04636790 -0.02708470
-0.02662390 0.04635970 -0.02708340
-0.04559070 0.04476830 -0.01097660
-0.04756780 0.04469060 -0.01040740
-0.05058100 0.04459380 -0.00942218
-0.05085680 0.09995180 -0.02194020
-0.05311450 0.15756300 -0.00324336
-0.01923240 0.17714100 -0.02345260
-0.05286590 0.09992630 -0.02167820
0.04337080 0.04594150 -0.00338184
-0.05387830 0.09991490 -0.02143890
0.02942100 0.04611830 -0.00671048
-0.05787410 0.09976970 -0.01939360
0.00435977 0.04810430 -0.02881520
0.00237024 0.04814490 -0.02947930
-0.00464270 0.04820960 -0.03031360
-0.00564116 0.04819240 -0.03035390
-0.00764633 0.04816700 -0.03038620
-0.01464790 0.04814630 -0.03033760
-0.02761110 0.04764120 -0.02567160
-0.02116370 0.17122200 -0.02073790
-0.03316020 0.17115800 -0.01539050
-0.04363200 0.04628860 -0.01128140
-0.05155560 0.04593360 -0.00836292
-0.04211670 0.15765101 -0.00983865
-0.04410120 0.15764999 -0.00916962
-0.01520500 0.17568500 -0.02608920
-0.06383650 0.09960970 -0.01751990
0.04238620 0.04753200 -0.00502925
0.04138990 0.04753690 -0.00516876
0.03938560 0.04758870 -0.00567863
0.02334460 0.04896220 -0.02133720
0.02139310 0.04897280 -0.02230350
0.01237410 0.04942690 -0.02748140
0.00936651 0.04947370 -0.02825380
0.00433106 0.04960130 -0.02925460
0.00035635 0.04968080 -0.03061880
-0.00664542 0.04963130 -0.03079900
-0.00865087 0.04967190 -0.03097500
-0.01465130 0.04968220 -0.03118950
-0.02266250 0.04935760 -0.02817620
-0.02760720 0.04882250 -0.02462090
-0.06626470 0.16096701 -0.05746810
-0.04656190 0.04756100 -0.00986957
0.04633920 0.04896940 -0.00446687
0.03436380 0.04913510 -0.00656846
0.03238950 0.04907880 -0.00667281
0.00936768 0.05096730 -0.02890750
-0.00265316 0.05114820 -0.03110610
-0.01366320 0.05113160 -0.03175780
-0.01869080 0.05101130 -0.03075840
-0.03561420 0.04932250 -0.01253170
-0.03661390 0.04930850 -0.01239940
-0.04257500 0.04912910 -0.01103500
-0.04358010 0.04911730 -0.01078800
-0.05354980 0.04866730 -0.00635158
-0.02511490 0.16376400 -0.01590450
-0.06728910 0.17820901 -0.05953360
-0.03114810 0.17412201 -0.01586760
0.04236400 0.05058460 -0.00668018
0.04137950 0.05056910 -0.00672382
0.04038690 0.05056170 -0.00671315
-0.06392390 0.11665200 -0.01030620
0.02632940 0.05177670 -0.02097000
0.02342240 0.05190710 -0.02310480
0.02037380 0.05213740 -0.02573420
0.01636660 0.05222470 -0.02688160
-0.01668320 0.05257190 -0.03227710
-0.03262280 0.05066680 -0.01152190
-0.03362010 0.05059690 -0.01075970
-0.03661980 0.05058060 -0.01075600
0.04532700 0.05194760 -0.00589943
0.04434500 0.05196930 -0.00630996
0.04137820 0.05198670 -0.00685663
0.02636000 0.05317410 -0.02088710
0.01136490 0.05384870 -0.02942890
0.01035640 0.05388950 -0.02977710
0.00533532 0.05389920 -0.03017580
0.00333411 0.05392660 -0.03036830
0.00233442 0.05394690 -0.03061430
-0.00366205 0.05406310 -0.03226960
-0.00967078 0.05416680 -0.03364460
-0.01468200 0.05409450 -0.03327760
-0.01567530 0.05410590 -0.03323920
-0.02467220 0.05361000 -0.02815760
0.00111147 0.11014700 -0.02012940
-0.03262680 0.05202270 -0.01076260
-0.03362100 0.05197460 -0.01025590
-0.03662240 0.05198040 -0.01050230
-0.04261780 0.05200180 -0.01094410
-0.04660730 0.05187640 -0.00969859
-0.04758550 0.05183720 -0.00929506
-0.04858420 0.05178010 -0.00897412
-0.08287450 0.11916100 -0.00328383
0.05033500 0.05316160 -0.00370253
0.04933430 0.05322470 -0.00436790
0.04732120 0.05332580 -0.00537345
0.04038490 0.05337890 -0.00673496
0.03938990 0.05336020 -0.00667374
-0.02916070 0.17118300 -0.01755030
-0.06422840 0.16530301 -0.05997570
-0.06891040 0.12237100 -0.00889897
0.02632720 0.05459440 -0.02086380
-0.06882830 0.09660950 -0.01611490
0.01635040 0.05520510 -0.02843220
0.01134950 0.05530230 -0.02967760
0.00934189 0.05535270 -0.03030340
-0.01568850 0.05555990 -0.03390260
-0.03662990 0.05340850 -0.01050280
-0.04063190 0.05343450 -0.01100280
-0.01221600 0.17420501 -0.02766470
0.03835400 0.05474610 -0.00609927
-0.07685820 0.10485200 -0.00890260
-0.00832726 0.03491310 -0.02455400
-0.00467074 0.05693490 -0.03305860
-0.00968443 0.05701010 -0.03388960
-0.01469320 0.05703150 -0.03469560
-0.01569300 0.05704400 -0.03465510
-0.07196250 0.13550401 -0.00769556
-0.03363590 0.05484610 -0.01051010
-0.04562230 0.05484030 -0.01080810
-0.04012140 0.15917601 -0.01122870
0.05228300 0.05599020 -0.00325400
0.05029750 0.05609570 -0.00457555
0.04734640 0.05617460 -0.00570080
0.04535890 0.05618110 -0.00597324
0.03934840 0.05612430 -0.00568756
-0.06299900 0.13113999 -0.00820840
0.01033530 0.05815570 -0.02994030
0.00534103 0.05819990 -0.03082790
-0.00569220 0.05844990 -0.03401800
-0.01469600 0.05851920 -0.03543140
-0.06823080 0.18068500 -0.05842780
-0.04589820 0.10706900 -0.01947560
-0.07645950 0.11121900 0.04597680
-0.03264640 0.05635250 -0.01139880
-0.03564380 0.05626860 -0.01063100
-0.04064840 0.05632660 -0.01131920
-0.04363280 0.05634600 -0.01152550
-0.04562500 0.05631100 -0.01129800
-0.03908070 0.15921900 -0.01177340
-0.01422330 0.17419900 -0.02612170
-0.01985190 0.03572630 0.05259760
0.00114374 0.10163900 -0.02261940
0.05330930 0.05734510 -0.00263239
0.05030920 0.05750990 -0.00459296
0.04933190 0.05754190 -0.00502247
0.04635790 0.05756320 -0.00556359
0.04135100 0.05747510 -0.00521440
0.03837870 0.05753080 -0.00558257
-0.03407660 0.17258599 -0.01451270
0.02432640 0.05918230 -0.02482330
0.02335830 0.05923650 -0.02551150
0.02136630 0.05931180 -0.02644010
0.00833511 0.05957360 -0.03024530
0.00232768 0.05976930 -0.03283250
-0.00769877 0.05988080 -0.03457170
-0.00869265 0.05985660 -0.03446280
-0.03384870 0.09862800 -0.02281300
-0.05766890 0.03501570 0.04503370
-0.03564680 0.05772760 -0.01101250
-0.04265680 0.05781580 -0.01189100
-0.04564090 0.05778410 -0.01176170
-0.05159550 0.05750540 -0.00888629
-0.00385838 0.10164100 -0.02310160
0.05131560 0.05888310 -0.00408417
0.05032180 0.05890810 -0.00447436
0.04235630 0.05888190 -0.00453174
0.04010310 0.05896150 -0.00453029
-0.03017450 0.17265999 -0.01679960
-0.06528950 0.17533199 -0.06075040
-0.08091040 0.12658399 -0.00546143
-0.01088560 0.10733400 -0.02226710
0.01130970 0.06095360 -0.02963950
-0.00069145 0.06125410 -0.03384040
-0.01170220 0.06139840 -0.03594640
-0.02173360 0.06117780 -0.03404710
-0.01719730 0.17419800 -0.02406230
-0.04420850 0.16514599 -0.00911238
-0.03010080 0.16227400 -0.01482790
-0.02215520 0.16973300 -0.01985840
0.01106320 0.03604040 -0.02235800
-0.03266140 0.05929470 -0.01253920
-0.03465600 0.05920940 -0.01164900
-0.03966390 0.05922280 -0.01167720
-0.04266230 0.05927410 -0.01226920
-0.04465050 0.05925480 -0.01230350
-0.05590810 0.11262800 -0.01651160
-0.03506460 0.15632300 -0.01057400
-0.04117390 0.16516200 -0.01136880
-0.03186820 0.10149700 -0.02247400
-0.07600850 0.14131799 -0.00596800
-0.06428670 0.17246599 -0.06113280
-0.03386900 0.10148000 -0.02222500
-0.07685620 0.11787700 -0.00659127
-0.00271622 0.06276360 -0.03490690
-0.01672500 0.06279990 -0.03622480
-0.02173080 0.06265110 -0.03466710
-0.02510520 0.16229901 -0.01510040
-0.03866290 0.06066340 -0.01198200
-0.03966730 0.06068460 -0.01206690
-0.04963880 0.06055830 -0.01132350
-0.02816550 0.17267001 -0.01805500
-0.05288490 0.10135900 -0.02121070
0.00831300 0.06393910 -0.03186670
-0.00471394 0.06418860 -0.03521790
-0.00871553 0.06420940 -0.03572260
-0.01071890 0.06424510 -0.03620230
-0.01572280 0.06429180 -0.03727740
-0.02371940 0.06398410 -0.03375400
-0.03514130 0.16669300 -0.01487890
-0.03314370 0.16967300 -0.01563220
-0.03367620 0.06222200 -0.01355290
-0.04366790 0.06219350 -0.01318640
-0.04466420 0.06217490 -0.01322010
-0.05163930 0.06188820 -0.01031040
-0.02556880 0.03565980 0.05313860
-0.01324390 0.17863099 -0.02842060
-0.06893720 0.12677400 -0.00892675
-0.06993150 0.12677900 -0.00900092
-0.07774880 0.07493000 0.02935600
-0.05588710 0.10835600 -0.01812760
-0.05411800 0.15755300 -0.00229988
0.01830000 0.06511940 -0.02852520
0.01529620 0.06521550 -0.02979120
0.00528348 0.06544380 -0.03293450
0.00128503 0.06554940 -0.03434060
-0.01572700 0.06575420 -0.03775170
-0.06500550 0.13552500 -0.00797350
-0.07702390 0.14130600 -0.00545257
-0.03368600 0.06374520 -0.01469720
-0.03667970 0.06365250 -0.01380210
-0.04868140 0.06348730 -0.01238570
-0.04964830 0.06344640 -0.01183110
-0.05163050 0.06333660 -0.01054250
-0.05261010 0.06329720 -0.01001130
-0.05764960 0.06294660 -0.00612077
-0.06458650 0.06281230 -0.00359236
-0.02118880 0.17566100 -0.02201130
-0.06090060 0.10685600 -0.01712920
-0.02760740 0.03564910 0.05271760
-0.08083700 0.12070500 -0.00484118
-0.08485810 0.12061300 -0.00298955
-0.01713450 0.16528800 -0.01834260
-0.07982560 0.11481700 -0.00349908
-0.00373228 0.06696310 -0.03467350
-0.02274390 0.06699050 -0.03606410
-0.02374030 0.06692520 -0.03529560
-0.07385400 0.10073600 -0.01283640
-0.02213280 0.16677199 -0.01831090
-0.03468780 0.06516830 -0.01482510
-0.03668610 0.06513130 -0.01443890
-0.04966760 0.06490290 -0.01223080
-0.06263950 0.06440430 -0.00619313
-0.04409420 0.15616301 -0.00853601
-0.06095370 0.12382600 -0.00859412
-0.05896600 0.12379700 -0.00809452
-0.06249590 0.06079290 0.02191340
-0.04407460 0.15469299 -0.00787200
-0.05995530 0.06108720 0.02395660
-0.02612240 0.16525801 -0.01665220
-0.07384630 0.11495200 -0.00659368
0.01830750 0.06797650 -0.02897400
0.00127365 0.06829960 -0.03358750
-0.00273038 0.06837350 -0.03471730
-0.01975630 0.06855280 -0.03789780
-0.02177290 0.06848170 -0.03726710
-0.04510100 0.15615200 -0.00816042
-0.03512260 0.16965200 -0.01458140
-0.03129230 0.03627690 0.05131450
-0.02315340 0.03521070 0.05231840
-0.03869770 0.06660310 -0.01474760
-0.03970060 0.06661360 -0.01487440
-0.04170250 0.06666570 -0.01534490
-0.04269420 0.06662960 -0.01540910
-0.04868350 0.06644350 -0.01364160
-0.05163800 0.06632660 -0.01178480
-0.06168380 0.06593040 -0.00830259
-0.06609820 0.15658601 -0.05347260
0.02226130 0.06925480 -0.02697220
0.01427990 0.06955380 -0.03108850
0.00026759 0.06974830 -0.03423920
-0.01774850 0.07000270 -0.03827860
-0.03570420 0.06811180 -0.01609200
-0.05468400 0.06784800 -0.01281240
-0.03216230 0.17264500 -0.01563900
-0.01912180 0.16531201 -0.01791780
0.02124800 0.07071210 -0.02759920
0.02025550 0.07076170 -0.02824490
0.01124950 0.07103590 -0.03203260
0.00924462 0.07108390 -0.03266570
-0.02476550 0.07124860 -0.03658560
-0.05788990 0.11116200 -0.01671820
-0.03571190 0.06958680 -0.01672990
-0.03871640 0.06957090 -0.01613110
-0.04371300 0.06955920 -0.01684870
-0.04470990 0.06955300 -0.01655710
-0.05069230 0.06937930 -0.01431110
-0.05170490 0.06931370 -0.01415400
-0.06762150 0.06881550 -0.00772966
-0.06861850 0.06871750 -0.00655491
-0.00998984 0.17723800 -0.02951360
-0.06324600 0.07098360 0.03755100
-0.05583340 0.03585230 0.04644790
-0.07486310 0.10636200 -0.00967707
-0.01527430 0.18010101 -0.02703990
-0.01187770 0.10730400 -0.02209470
-0.06894690 0.13113500 -0.00874709
0.02822980 0.07178260 -0.02289330
0.02728150 0.07182430 -0.02359290
0.01423840 0.07235920 -0.03088560
0.01226870 0.07240510 -0.03147330
0.01027380 0.07245260 -0.03223200
0.00124491 0.07264880 -0.03510820
-0.01876340 0.07287380 -0.03887150
-0.02278500 0.07279910 -0.03827310
-0.02476290 0.07270340 -0.03708360
-0.03671940 0.07104360 -0.01723690
-0.03872160 0.07103570 -0.01692180
-0.04172020 0.07107680 -0.01753600
-0.04271470 0.07107050 -0.01769660
-0.06170490 0.07074300 -0.01463450
-0.06371250 0.07059310 -0.01312670
0.00814500 0.10300400 -0.02076620
-0.01099170 0.17723100 -0.02952080
-0.01626120 0.17862000 -0.02601280
-0.02618620 0.17712000 -0.01857230
-0.06428360 0.17536400 -0.06122070
-0.06806070 0.15382300 -0.04989080
-0.07165640 0.06390470 0.01906380
-0.02121150 0.17713900 -0.02203220
-0.06522590 0.16672701 -0.05979610
0.02724370 0.07326140 -0.02380680
0.00525002 0.07402230 -0.03451950
0.00023560 0.07409520 -0.03560380
-0.01276240 0.07426510 -0.03841560
-0.02278370 0.07422850 -0.03853170
-0.02380070 0.07417740 -0.03803980
-0.02476320 0.07414310 -0.03745710
-0.06408840 0.16089700 -0.05761170
-0.01219870 0.17123599 -0.02575810
-0.03772290 0.07247830 -0.01749130
-0.05971010 0.07233460 -0.01638120
-0.06270890 0.07223130 -0.01538320
-0.06467450 0.07219570 -0.01431620
-0.07264250 0.07161560 -0.00744076
-0.06824520 0.17678000 -0.05827300
-0.02011920 0.16378500 -0.01655080
-0.02912190 0.16373301 -0.01554930
-0.06918320 0.15383700 -0.04955960
-0.04219390 0.16515300 -0.01062920
-0.07293020 0.12820400 -0.00868672
0.02126000 0.07489920 -0.02689790
0.01225800 0.07517330 -0.03083540
0.00824182 0.07539560 -0.03385790
0.00023196 0.07551330 -0.03574590
-0.01677460 0.07569890 -0.03894550
-0.01877570 0.07569490 -0.03900190
-0.02281100 0.07563510 -0.03858290
-0.02576310 0.07550550 -0.03694910
-0.02774600 0.07539540 -0.03565680
-0.01320420 0.17124499 -0.02510700
-0.03772990 0.07393070 -0.01787420
-0.05473370 0.07385450 -0.01741250
-0.06173420 0.07372710 -0.01670140
-0.06570150 0.07364050 -0.01523750
-0.06668970 0.07359980 -0.01459240
-0.06866140 0.07350880 -0.01316180
-0.01218240 0.17867300 -0.02923540
-0.02711270 0.16377001 -0.01587540
-0.03312640 0.16371900 -0.01489950
0.01524660 0.07651610 -0.02981160
0.01025040 0.07669550 -0.03235470
-0.02281080 0.07704650 -0.03857480
-0.02378290 0.07701950 -0.03824490
-0.06703770 0.15523900 -0.05193450
-0.03674010 0.07542530 -0.01876660
-0.03773890 0.07537840 -0.01825570
-0.04074410 0.07539140 -0.01831920
-0.05373530 0.07532050 -0.01835240
-0.05573550 0.07535490 -0.01855190
-0.06274660 0.07518720 -0.01735420
-0.06373100 0.07519420 -0.01717690
-0.06970100 0.07491040 -0.01358140
-0.07162720 0.07484590 -0.01198660
-0.07362200 0.07470150 -0.00970199
-0.07484870 0.06645590 0.00653551
-0.07686190 0.11638600 -0.00596474
-0.03216070 0.17412400 -0.01512200
-0.03806600 0.15625700 -0.01023650
-0.07198960 0.13990800 -0.00735583
-0.01621650 0.17567199 -0.02521650
-0.04607560 0.15467399 -0.00723534
0.02923170 0.07736210 -0.02191410
0.02623240 0.07753080 -0.02420270
0.02524990 0.07758150 -0.02486880
0.01122820 0.07806810 -0.03182100
-0.01376260 0.07846160 -0.03847710
-0.01477330 0.07843400 -0.03857760
-0.02680760 0.07827990 -0.03662730
-0.02163300 0.03504400 -0.02805330
-0.04513650 0.16064399 -0.00892562
-0.03874300 0.07682560 -0.01863800
-0.04274230 0.07682250 -0.01889880
-0.04474170 0.07680630 -0.01859870
-0.05674510 0.07680070 -0.01923380
-0.05774540 0.07678440 -0.01911550
-0.06074400 0.07669880 -0.01821930
-0.07066700 0.07639370 -0.01404200
-0.02985520 0.09867550 -0.02322240
-0.04606450 0.15168799 -0.00554828
-0.01617330 0.16825300 -0.02104050
-0.06498100 0.13114800 -0.00860586
-0.07091760 0.11221400 -0.00951227
0.01624070 0.07931430 -0.02944720
0.01522380 0.07935680 -0.03005190
0.00722702 0.07962520 -0.03387850
-0.00679227 0.07987570 -0.03788540
-0.01378400 0.07991710 -0.03897740
-0.02380360 0.07982290 -0.03815570
-0.03575500 0.07832480 -0.01953350
-0.05375160 0.07825100 -0.01964880
-0.06673270 0.07802600 -0.01715220
-0.05607880 0.15457900 -0.00133297
0.02126680 0.08052800 -0.02658720
0.01822040 0.08064500 -0.02827630
-0.00076586 0.08118730 -0.03646260
-0.01379730 0.08134800 -0.03919110
-0.01780300 0.08133370 -0.03918930
-0.02080780 0.08131400 -0.03906500
-0.03776220 0.07976290 -0.01991280
-0.04276560 0.07973920 -0.01975970
-0.04875920 0.07972940 -0.02001540
-0.06076610 0.07960350 -0.01913440
-0.06974840 0.07933760 -0.01603070
-0.03986160 0.10280600 -0.02079800
-0.04386040 0.10281600 -0.02130310
-0.01826350 0.18009600 -0.02448490
-0.01425630 0.17862800 -0.02766250
-0.05302190 0.14719599 -0.00187885
0.02822190 0.08161250 -0.02193040
-0.04986540 0.10278800 -0.02104860
-0.00378569 0.08266450 -0.03749000
-0.00779920 0.08267660 -0.03782160
-0.05476720 0.08122740 -0.02140880
-0.06376810 0.08099180 -0.01886750
-0.06478190 0.08095310 -0.01851440
-0.06777420 0.08086460 -0.01747320
-0.07761040 0.08029150 -0.00928059
-0.08087860 0.12216600 -0.00503067
-0.06419940 0.16384000 -0.05940700
-0.02815440 0.16821299 -0.01758180
0.03023650 0.08289760 -0.02004960
0.01920580 0.08342410 -0.02764000
0.01821470 0.08346190 -0.02816980
-0.00180047 0.08404220 -0.03693010
-0.00780413 0.08409760 -0.03796480
-0.02679860 0.08391750 -0.03671860
-0.01719430 0.17121901 -0.02243520
-0.03777800 0.08275560 -0.02195310
-0.03877770 0.08270420 -0.02131530
-0.04177230 0.08263970 -0.02083850
-0.04477190 0.08262860 -0.02067060
-0.04777760 0.08266770 -0.02112580
-0.04877560 0.08266510 -0.02127810
-0.05177510 0.08266680 -0.02156240
-0.05277470 0.08266220 -0.02155370
-0.05377660 0.08265850 -0.02155830
-0.06778120 0.08231620 -0.01785530
-0.07077730 0.08220580 -0.01657200
-0.07371190 0.08209300 -0.01482870
-0.06987120 0.10229900 -0.01427440
-0.07187850 0.10223900 -0.01326940
-0.07398790 0.13987900 -0.00672352
-0.06618420 0.16392100 -0.05849690
-0.06526840 0.16385300 -0.05916680
-0.07401130 0.14134300 -0.00688783
-0.07587420 0.10206300 -0.01069970
-0.06700750 0.13996400 -0.00790796
0.03424480 0.08421030 -0.01842530
0.02920510 0.08437560 -0.02090310
-0.07686560 0.12080300 -0.00710990
-0.06824430 0.17946100 -0.05892140
0.01419760 0.08500860 -0.03018520
-0.00581815 0.08546940 -0.03752010
-0.00681664 0.08547910 -0.03765490
-0.01282370 0.08553450 -0.03876850
-0.01682460 0.08555380 -0.03898360
-0.03878220 0.08417150 -0.02195300
-0.04778120 0.08409730 -0.02158170
-0.05078180 0.08409550 -0.02170370
-0.06580250 0.08380200 -0.01866840
-0.06877640 0.18048701 -0.05830420
-0.06429200 0.16817200 -0.06058790
-0.04908860 0.15759900 -0.00632625
-0.07588910 0.11935200 -0.00728174
-0.07500400 0.14133400 -0.00649150
-0.05556270 0.03517360 0.04535770
-0.01720810 0.17270100 -0.02333140
-0.02318580 0.17269000 -0.02051360
0.01422340 0.08641840 -0.03012720
-0.00382707 0.08681470 -0.03662860
-0.01582650 0.08693350 -0.03859040
-0.01682180 0.08691600 -0.03865960
-0.02381230 0.08677740 -0.03723620
-0.02679030 0.08665210 -0.03581370
-0.05404170 0.14867499 -0.00217424
-0.05206490 0.14865801 -0.00262972
-0.03778880 0.08559960 -0.02208570
-0.04078700 0.08553840 -0.02143700
-0.05780340 0.08544720 -0.02119770
-0.06779300 0.08517030 -0.01798620
-0.07079590 0.08506380 -0.01671460
-0.07476450 0.08490320 -0.01474770
-0.07296170 0.13695399 -0.00717713
-0.06091020 0.12092200 -0.00906619
-0.04907840 0.15315600 -0.00527602
-0.05506660 0.15163501 -0.00215779
0.03322980 0.08709230 -0.01868270
-0.04087200 0.10566300 -0.02043720
0.01520630 0.08780770 -0.02946580
0.00621357 0.08804840 -0.03322140
-0.02914600 0.16821399 -0.01730050
-0.02283080 0.08819460 -0.03690290
-0.02382570 0.08815890 -0.03662280
-0.02581980 0.08808590 -0.03572750
-0.02780460 0.03647890 0.05363040
-0.02910300 0.16227800 -0.01496330
-0.03279550 0.08730160 -0.02540190
-0.04079360 0.08697840 -0.02146070
-0.04679680 0.08699130 -0.02198600
-0.03448590 0.03352450 -0.02990410
-0.03235210 0.03368740 -0.02963760
-0.03144350 0.03348800 -0.02927460
-0.03044870 0.03344920 -0.02904450
-0.03616900 0.03359010 -0.02841620
-0.03312720 0.03355450 -0.02778810
-0.02809310 0.03344100 -0.02669650
-0.02396580 0.03352770 -0.02596710
-0.02296860 0.03348900 -0.02573600
-0.01988320 0.03353370 -0.02517480
-0.00645782 0.03383590 -0.02282350
-0.00342161 0.03380050 -0.02219630
-0.00033732 0.03384540 -0.02163380
0.00075115 0.03396780 -0.02153550
0.00279805 0.03397670 -0.02114970
0.00900275 0.03431160 -0.02006810
0.01221570 0.03461380 -0.01974320
0.01325090 0.03496890 -0.01959660
-0.03889240 0.03361170 -0.02709870
-0.03177220 0.03358350 -0.02567490
-0.02564730 0.03359390 -0.02448270
-0.01535410 0.03377280 -0.02262730
-0.01122860 0.03386050 -0.02189860
-0.01018600 0.03390250 -0.02173410
-0.00918339 0.03386400 -0.02150210
-0.00814387 0.03390610 -0.02133610
-0.00505811 0.03395180 -0.02077180
0.00010809 0.03408140 -0.01987930
0.00523902 0.03413350 -0.01892440
0.01560330 0.03520360 -0.01745390
-0.04248510 0.03391300 -0.02621880
-0.03961940 0.03355380 -0.02532040
-0.03757890 0.03355760 -0.02492150
-0.03145850 0.03356950 -0.02372570
-0.02528910 0.03366230 -0.02259850
-0.02424510 0.03370530 -0.02242950
-0.02016220 0.03371280 -0.02163460
-0.01703550 0.03383920 -0.02114020
-0.00574267 0.03398250 -0.01904990
0.00554907 0.03412430 -0.01696160
0.01692230 0.03548990 -0.01545220
-0.04398660 0.03429550 -0.02500340
-0.04234190 0.03357060 -0.02400510
-0.03826220 0.03357920 -0.02320890
-0.03105430 0.03371730 -0.02191160
-0.02787920 0.03392650 -0.02147950
-0.02688240 0.03388820 -0.02124820
-0.02475270 0.03405570 -0.02098130
-0.02370700 0.03409790 -0.02081550
-0.01749920 0.03427000 -0.01975650
-0.00820144 0.03449280 -0.01812780
0.00803706 0.03436480 -0.01480620
0.01098310 0.03416840 -0.01404330
-0.04203090 0.03355170 -0.02206250
-0.03890130 0.03368020 -0.02156510
-0.03477320 0.03377320 -0.02082950
-0.00526883 0.03554030 -0.01664160
0.00293826 0.03564010 -0.01511210
0.00774922 0.03512620 -0.01368230
-0.04595000 0.03510080 -0.02241170
-0.04475240 0.03356400 -0.02075410
-0.04375560 0.03352620 -0.02051770
-0.04166820 0.03361250 -0.02018790
-0.03640910 0.03391120 -0.01941950
0.01378450 0.03440000 -0.00993851
0.01482720 0.03444340 -0.00977208
-0.04339430 0.03358520 -0.01864620
-0.03696310 0.03417180 -0.01790860
-0.03443190 0.03507210 -0.01823870
-0.03312060 0.03560240 -0.01847050
-0.02610770 0.03724450 -0.01859290
-0.02289350 0.03753590 -0.01822490
-0.01355590 0.03784330 -0.01665970
-0.00330758 0.03795370 -0.01472650
-0.00221994 0.03807830 -0.01462510
0.00381296 0.03793130 -0.01329380
0.00749342 0.03720960 -0.01189780
0.01636410 0.03480270 -0.00791773
-0.03986110 0.03385610 -0.01633850
-0.01896320 0.03854310 -0.01650580
-0.00867178 0.03873640 -0.01463440
0.00157845 0.03884650 -0.01270050
0.00789390 0.03736310 -0.01008000
-0.04162770 0.03374410 -0.01473500
-0.04054390 0.03387010 -0.01463260
-0.03932140 0.03424160 -0.01473080
-0.02672200 0.03866460 -0.01629270
-0.02363760 0.03871480 -0.01572310
-0.01851170 0.03877180 -0.01475730
-0.01130510 0.03891620 -0.01345420
-0.01026090 0.03896010 -0.01328640
0.00107085 0.03919820 -0.01125050
0.00297917 0.03896070 -0.01065100
0.00397477 0.03892290 -0.01041910
0.00669982 0.03832280 -0.00932299
0.01268830 0.03436060 -0.00448368
0.01812310 0.03498650 -0.00397885
-0.04444080 0.03358550 -0.01330310
-0.04126720 0.03380150 -0.01286570
-0.00790609 0.03895270 -0.01094140
0.00142887 0.03926780 -0.00936829
0.00679264 0.03790240 -0.00704418
0.00896308 0.03441410 -0.00340754
0.01295510 0.03426500 -0.00247291
-0.05197690 0.03409950 -0.01343750
-0.05011270 0.03378030 -0.01277110
-0.04911550 0.03374310 -0.01253830
-0.04720970 0.03350590 -0.01193720
-0.04616310 0.03355060 -0.01177060
-0.03329860 0.03847960 -0.01371480
-0.02812790 0.03862000 -0.01281230
-0.02509320 0.03858980 -0.01217390
-0.02200850 0.03864150 -0.01160540
-0.00138514 0.03912160 -0.00791905
0.00174509 0.03925480 -0.00741822
0.00918856 0.03423450 -0.00132638
0.01018810 0.03419760 -0.00109267
0.01222730 0.03420480 -0.00069196
0.01426970 0.03421200 -0.00028980
0.02427130 0.03575400 0.00029446
0.02893170 0.03699270 0.00026404
0.03374140 0.03847230 -0.00006482
-0.05478520 0.03393460 -0.01200650
-0.05283430 0.03378020 -0.01148020
-0.04145520 0.03410960 -0.00949275
-0.03289300 0.03861990 -0.01190520
-0.01861120 0.03867380 -0.00909396
-0.01548390 0.03880740 -0.00858919
-0.00310937 0.03909860 -0.00637767
0.00201290 0.03915810 -0.00540617
0.00296745 0.03903910 -0.00510833
0.01871030 0.03429340 0.00239320
0.03600010 0.03811460 0.00239588
-0.04652910 0.03352680 -0.00814027
-0.04544060 0.03365340 -0.00804117
-0.04096120 0.03440920 -0.00782476
-0.03683400 0.03825390 -0.01051190
-0.03574940 0.03838010 -0.01040500
-0.03361740 0.03855150 -0.01013750
-0.02962560 0.03840420 -0.00919904
-0.02042280 0.03848210 -0.00742540
-0.00388340 0.03895480 -0.00453366
-0.00075387 0.03908950 -0.00403098
0.00292266 0.03837020 -0.00263564
0.01416720 0.03470730 0.00296826
0.01647500 0.03520360 0.00297800
0.01742620 0.03508460 0.00327627
0.01833340 0.03488570 0.00364336
0.01924620 0.03468320 0.00400718
0.02645280 0.03483480 0.00531809
0.03725440 0.03791890 0.00466817
-0.05741100 0.03348840 -0.00846165
-0.05645650 0.03337000 -0.00815977
-0.05441710 0.03337850 -0.00775516
-0.05028920 0.03347740 -0.00701976
-0.04616810 0.03357600 -0.00628041
-0.03434380 0.03848110 -0.00836679
-0.00560731 0.03892730 -0.00299633
-0.00048427 0.03898900 -0.00201961
0.00605345 0.03416140 0.00369541
0.01175240 0.03528630 0.00381322
0.01627630 0.03612120 0.00396256
0.01891420 0.03535850 0.00519133
0.02346190 0.03435570 0.00702041
-0.06959020 0.11349500 0.04929590
-0.06412150 0.03362590 -0.00810847
-0.06307680 0.03367120 -0.00794186
-0.05913210 0.03344340 -0.00693780
-0.05813390 0.03340690 -0.00670381
-0.04788720 0.03353360 -0.00475407
-0.03806660 0.03851860 -0.00730796
-0.03506930 0.03840920 -0.00660408
-0.03303050 0.03841810 -0.00620006
-0.03198940 0.03846330 -0.00603174
-0.03099090 0.03842680 -0.00579914
-0.02799740 0.03831740 -0.00509350
-0.00025821 0.03880580 0.00004931
0.00122549 0.03591250 0.00298025
0.00433280 0.03413030 0.00522853
0.00659366 0.03454970 0.00530800
0.00942926 0.03603040 0.00452751
0.02045190 0.03570960 0.00704168
0.03766650 0.03743780 0.00893640
0.04307400 0.04016690 0.00739140
-0.06575210 0.03374200 -0.00672308
-0.05681640 0.03333320 -0.00454462
-0.04652810 0.03354400 -0.00265640
-0.04544230 0.03367130 -0.00255197
-0.03579670 0.03833510 -0.00483874
-0.02972170 0.03828120 -0.00356060
0.00007575 0.03694730 0.00366537
0.00096507 0.03482350 0.00577003
0.00360500 0.03405920 0.00699628
0.00464616 0.03410500 0.00716872
0.02089790 0.03593710 0.00878490
0.02622040 0.03448970 0.01117350
0.03531330 0.03624970 0.01141710
0.03797490 0.03740970 0.01090150
-0.07741250 0.06897000 0.01696930
-0.06552100 0.03353730 -0.00466605
-0.06053480 0.03335680 -0.00349710
-0.03548120 0.03830510 -0.00290933
-0.03343830 0.03831490 -0.00250434
-0.02732160 0.03834400 -0.00129213
-0.01403740 0.03844830 0.00129960
-0.00270805 0.03870670 0.00335713
0.00296971 0.03415130 0.00863676
0.00396755 0.03411470 0.00886829
0.02658020 0.03455080 0.01304940
0.04271630 0.03992440 0.01137680
-0.06814620 0.03368800 -0.00353141
-0.06519610 0.03349740 -0.00275965
-0.04275800 0.03360590 0.00168497
-0.04176150 0.03357000 0.00191851
-0.03971920 0.03358000 0.00232461
-0.02803990 0.03826100 0.00045313
-0.02391680 0.03836260 0.00119722
-0.00651000 0.03856960 0.00453582
-0.00442631 0.03866120 0.00487339
0.02417470 0.03511450 0.01387720
0.03155920 0.03560300 0.01492920
0.03521630 0.03672580 0.01465630
0.03909590 0.03825910 0.01405450
0.04182770 0.03953620 0.01341820
-0.06968470 0.03396580 -0.00228810
-0.06691000 0.03344800 -0.00125687
-0.06586670 0.03349360 -0.00108817
-0.05263150 0.03351730 0.00157493
-0.02871240 0.03825920 0.00213562
-0.01130930 0.03846720 0.00547553
-0.00140393 0.03610180 0.00962515
-0.00002435 0.03487740 0.01100610
0.03214460 0.03606090 0.01646370
0.03959270 0.03855360 0.01571780
0.04236290 0.03989640 0.01503740
-0.06947900 0.03370460 -0.00020910
-0.06856630 0.03350430 0.00015333
-0.06046750 0.03343770 0.00185915
-0.05534700 0.03350380 0.00284205
-0.03382240 0.03381420 0.00692539
-0.03047840 0.03812970 0.00370653
-0.02843740 0.03813940 0.00411543
-0.00790814 0.03848610 0.00796690
-0.00309828 0.03797620 0.00940157
0.00592655 0.03396850 0.01485130
0.02144610 0.03633600 0.01586140
0.02920450 0.03563920 0.01806840
-0.05624730 0.07082940 0.03920230
-0.07177610 0.03445830 0.00044446
-0.07012370 0.03374810 0.00141754
-0.06213880 0.03346920 0.00329381
-0.04573460 0.03371730 0.00640665
-0.03766440 0.03359090 0.00815690
-0.03558200 0.03368260 0.00849877
-0.02915770 0.03805550 0.00585400
-0.02602880 0.03819350 0.00636573
-0.02195220 0.03821390 0.00717586
-0.00962665 0.03843880 0.00947704
0.00651507 0.03442310 0.01637930
0.03336040 0.03705700 0.01945830
0.03579760 0.03780590 0.01927620
-0.07287220 0.03555470 0.00103582
-0.06783170 0.03357570 0.00383638
-0.06481140 0.03351650 0.00450366
-0.05261040 0.03351540 0.00699108
-0.04583160 0.03478000 0.00723173
-0.04279520 0.03475560 0.00787321
-0.04179640 0.03471810 0.00810808
-0.03989030 0.03448060 0.00870734
-0.03312660 0.03381750 0.01067940
0.00670640 0.03414070 0.01848630
0.02024970 0.03473990 0.02069800
0.02567960 0.03538290 0.02122560
0.02689860 0.03575780 0.02113570
0.04562020 0.04216080 0.01911700
0.04826580 0.04333130 0.01856110
-0.07198580 0.03464820 0.00381826
-0.07033500 0.03393850 0.00479187
-0.06942470 0.03373820 0.00515427
-0.05735510 0.03350450 0.00783858
-0.05532410 0.03350050 0.00825618
-0.05219780 0.03363970 0.00876400
-0.04710430 0.03554950 0.00808039
-0.04289320 0.03581650 0.00869673
-0.04193980 0.03569840 0.00899705
-0.03570730 0.03405000 0.01175110
-0.03488780 0.03368550 0.01224480
-0.03176220 0.03382430 0.01275860
-0.02230340 0.03817330 0.01076340
-0.00897910 0.03836360 0.01330440
-0.00231070 0.03753790 0.01540930
0.00057629 0.03533870 0.01797190
0.01050590 0.03489760 0.02038900
0.01640710 0.03451840 0.02193520
0.01749010 0.03464630 0.02204090
0.02392060 0.03525520 0.02280220
0.03231690 0.03763190 0.02236940
0.03353540 0.03800530 0.02227690
0.03471100 0.03830010 0.02225550
0.04236990 0.04121120 0.02119350
0.04633470 0.04288130 0.02044400
-0.07089650 0.03413230 0.00629169
-0.06804360 0.03376350 0.00720288
-0.05696340 0.03357710 0.00964709
-0.05498040 0.03348720 0.01013330
-0.04859710 0.03590970 0.00925535
-0.03922200 0.03632620 0.01078990
-0.02514920 0.03791370 0.01223030
-0.02415050 0.03787820 0.01246470
-0.01581730 0.03824800 0.01382750
-0.00557531 0.03838180 0.01579380
0.00280759 0.03506390 0.02048470
0.00761699 0.03455640 0.02192250
0.03425390 0.03870230 0.02361570
0.04178010 0.04138300 0.02274660
0.04714720 0.04376320 0.02163640
0.04996610 0.04514210 0.02088780
-0.07133260 0.03455710 0.00760774
-0.05760720 0.03361620 0.01126630
-0.00316980 0.03843550 0.01804590
0.00802743 0.03468230 0.02370270
0.01106540 0.03465690 0.02434610
0.01206280 0.03462140 0.02458440
0.01310570 0.03466760 0.02475360
0.01935370 0.03494590 0.02577910
0.03384140 0.03921010 0.02490050
0.04258000 0.04226240 0.02394790
0.04657160 0.04400080 0.02316550
-0.08019280 0.10988500 0.04084870
-0.07086050 0.03478250 0.00928864
-0.06999030 0.03450400 0.00971713
-0.06816880 0.03409990 0.01044270
-0.06523330 0.03388840 0.01123890
-0.06225970 0.03375430 0.01197020
-0.05527280 0.03351990 0.01362260
-0.03533080 0.03470330 0.01664600
-0.02441150 0.03799960 0.01591790
-0.02336990 0.03804580 0.01608740
-0.01820520 0.03819550 0.01700880
-0.01512640 0.03825240 0.01758430
-0.01308700 0.03826290 0.01799220
0.00493694 0.03585870 0.02383300
0.01763770 0.03489680 0.02728360
0.03122650 0.03932270 0.02607320
-0.08548450 0.11263900 0.04457320
-0.06943330 0.03488160 0.01127420
-0.06856570 0.03460130 0.01169760
-0.05988310 0.03373240 0.01426050
-0.05691090 0.03359900 0.01499500
0.01093680 0.03502700 0.02760860
0.01189030 0.03490870 0.02791110
0.02449670 0.03755960 0.02810730
0.03333070 0.04075600 0.02704240
0.03676190 0.04148330 0.02709340
0.04310780 0.04386190 0.02625780
-0.06975880 0.14713100 -0.02755710
-0.05740750 0.06499910 0.03343060
-0.06879090 0.03541390 0.01271360
-0.06623160 0.03450080 0.01404890
-0.06147720 0.03388730 0.01557240
-0.05557070 0.03354400 0.01710400
-0.05383500 0.03298740 0.01795080
-0.02163410 0.03809500 0.02001030
-0.02063400 0.03806000 0.02024750
0.00291872 0.03838910 0.02476630
0.01420880 0.03479800 0.03029020
0.02368750 0.03731060 0.02997720
0.03430960 0.04197260 0.02796840
0.04007870 0.04328950 0.02797560
-0.07375600 0.07162540 0.03127140
-0.07053100 0.15177900 -0.04537290
-0.06642190 0.03526750 0.01505500
-0.06479280 0.03466090 0.01599530
-0.06397100 0.03436520 0.01645560
-0.05616720 0.03365330 0.01865530
-0.05414240 0.03364200 0.01908880
-0.03534910 0.03461570 0.02212040
-0.03127350 0.03463900 0.02293350
-0.02859620 0.03772870 0.02071350
-0.00885716 0.03853110 0.02403700
0.00251072 0.03887880 0.02605220
0.00796329 0.03767740 0.02824120
0.01262570 0.03499400 0.03159960
-0.07880420 0.10993900 0.04288860
-0.08277950 0.11331400 0.04643560
-0.08967960 0.11434900 0.04226560
-0.06069580 0.03401510 0.01916660
-0.05879510 0.03377120 0.01977890
-0.05680940 0.03368320 0.02026880
-0.05581880 0.03363960 0.02051470
-0.05366990 0.03386230 0.02076750
-0.01160860 0.03843410 0.02536410
0.00859545 0.03821410 0.02969810
0.01195500 0.03498980 0.03327030
0.01490020 0.03480140 0.03404090
0.01698660 0.03489520 0.03438660
0.03414800 0.04421320 0.02953630
0.04207480 0.04579180 0.02977830
-0.05682410 0.06361200 0.03123620
-0.07157640 0.07249690 0.03448980
-0.08329040 0.11166300 0.04406430
-0.08972690 0.11303800 0.03618090
-0.06211980 0.03447640 0.02023140
-0.05836090 0.03391120 0.02151440
-0.05736630 0.03386730 0.02175930
-0.05538550 0.03378020 0.02225150
0.00233723 0.03916470 0.02937470
0.00900714 0.03833940 0.03147850
0.00960807 0.03756320 0.03229470
0.03947460 0.04590910 0.03094320
-0.07618930 0.06865730 0.01928060
-0.06396610 0.06904710 0.03556240
-0.07093910 0.10963100 0.03957910
-0.07761180 0.07395210 0.02846750
-0.08725790 0.11335500 0.02751680
-0.05996620 0.06059140 -0.00103222
-0.05840600 0.05984570 0.00024847
-0.07234660 0.06631580 0.02210540
-0.05995060 0.03405850 0.02281450
-0.05395870 0.03387640 0.02423130
-0.02852820 0.03780670 0.02605680
0.00769138 0.03902900 0.03239530
0.00842312 0.03850060 0.03301830
0.01915810 0.03576790 0.03766140
-0.07264050 0.14833701 -0.03103980
-0.07359820 0.11027600 0.04381560
-0.07228950 0.14780900 -0.02655690
-0.06827580 0.06442000 0.02461620
-0.07192810 0.14863500 -0.03503980
-0.08782610 0.11219000 0.03370970
-0.08821870 0.11216500 0.02100640
-0.06171030 0.06048850 0.00057147
-0.05921020 0.05959510 0.00211544
-0.06249490 0.07297450 0.03951670
-0.06098850 0.06285340 0.02749790
-0.06003890 0.06273480 0.02780400
-0.04654570 0.03379010 0.02762520
-0.04551140 0.03382650 0.02781600
-0.04447960 0.03386140 0.02800140
-0.04233010 0.03408830 0.02825410
-0.02698310 0.03814120 0.02787480
-0.01761560 0.03856150 0.02942180
-0.00828770 0.03889990 0.03103740
-0.00208274 0.03909830 0.03213460
0.00416104 0.03937860 0.03316430
0.01852940 0.03584660 0.03926990
-0.07306410 0.14829700 -0.02713700
-0.07148490 0.14728400 -0.02608270
-0.07867380 0.10815000 0.03358430
-0.08100850 0.10970000 0.03187340
-0.05167770 0.06681980 0.03658920
-0.06971630 0.06428200 0.02267300
-0.05992880 0.05950890 0.00385673
-0.06396000 0.03470400 0.02493170
-0.05813120 0.03421010 0.02658730
-0.05098760 0.03430160 0.02801090
-0.04697760 0.03420800 0.02893710
-0.04598550 0.03416550 0.02918430
-0.04181080 0.03438470 0.02986800
-0.03780470 0.03429160 0.03079560
-0.02982460 0.03787660 0.02932140
-0.02760720 0.03821700 0.02947290
0.00149398 0.03944490 0.03435880
0.00904539 0.03456000 0.04026450
0.01433930 0.03496050 0.04100180
0.03289340 0.03815710 -0.00002411
-0.07723700 0.07213260 0.02660590
-0.06406130 0.06063610 0.00380817
-0.06326140 0.06015380 0.00426714
-0.05991210 0.05889390 0.00621161
-0.06795730 0.06369680 0.02362580
-0.06783690 0.07064430 0.03511970
-0.06610370 0.07132590 0.03665010
-0.06182940 0.03420210 0.02756860
-0.05881410 0.03415240 0.02825010
-0.05468140 0.03429530 0.02899530
-0.05365090 0.03433110 0.02918480
-0.05059080 0.03436000 0.02980110
-0.04749550 0.03446710 0.03036360
-0.04344720 0.03445280 0.03122930
-0.03840340 0.03439580 0.03234260
-0.00013034 0.03955770 0.03572540
-0.00150449 0.03507310 0.03943530
-0.00064252 0.03479130 0.03986770
0.00334810 0.03464940 0.04081400
0.01050310 0.03473220 0.04221560
0.01158640 0.03486120 0.04232220
0.01271570 0.03507290 0.04236570
0.01384730 0.03528600 0.04241070
0.01501760 0.03557970 0.04239000
-0.08024870 0.10922800 0.03242800
-0.07093160 0.14759700 -0.03000960
-0.07973790 0.07387110 0.02283230
-0.08196850 0.07912150 0.02841360
-0.06638810 0.06773730 0.03267030
-0.08432390 0.07752690 0.01696160
-0.06534240 0.06298270 0.02471480
-0.06214830 0.06990340 0.03696200
-0.06711240 0.06187590 0.00376788
-0.05889830 0.05824160 0.00880815
-0.06432700 0.03454100 0.02849720
-0.06242580 0.03429840 0.02910940
-0.05941200 0.03424920 0.02978690
-0.03702130 0.03441290 0.03438120
-0.02881950 0.03845060 0.03260780
-0.01949100 0.03879070 0.03422540
-0.01324780 0.03907200 0.03526010
-0.00908444 0.03925970 0.03595120
-0.00704598 0.03927080 0.03635670
-0.00596208 0.03940000 0.03646460
-0.00230838 0.03482040 0.04129000
-0.00139702 0.03462060 0.04165940
0.00063752 0.03463180 0.04206890
0.00168043 0.03467840 0.04223900
0.00263147 0.03456120 0.04254170
0.00471758 0.03465540 0.04288560
0.00679863 0.03474950 0.04323220
0.01230770 0.03556200 0.04364530
0.01348100 0.03585620 0.04362450
-0.07326720 0.14847600 -0.02925830
-0.07496900 0.10567200 0.03648240
-0.07543680 0.11452200 0.05070900
-0.06285910 0.06798410 0.03495570
-0.05438420 0.06493400 0.03412900
-0.07103780 0.11390500 0.05042720
-0.05870340 0.05795430 0.01090400
-0.06203230 0.03435030 0.03089460
-0.02952760 0.03836170 0.03432910
-0.02731530 0.03870180 0.03448210
-0.02419340 0.03884270 0.03500050
-0.00891681 0.03510820 0.04146850
-0.00700917 0.03487270 0.04207200
-0.00410488 0.03460220 0.04290880
0.01332690 0.03685500 0.04446600
0.01611040 0.03826100 0.04379520
-0.07154410 0.11222500 0.04806650
-0.05206380 0.07235230 0.04057530
-0.08986200 0.11528100 0.04325970
-0.08846720 0.11363500 0.03060370
-0.06259700 0.07402870 0.04034500
-0.06349220 0.06263360 0.02539570
-0.02625130 0.03509510 0.05174840
-0.07011420 0.06257970 0.00621740
-0.06946350 0.06189680 0.00696654
-0.05937280 0.05794890 0.01257350
-0.06370380 0.03432790 0.03230250
-0.03929130 0.03449770 0.03734080
-0.03726820 0.03449210 0.03777820
-0.02273450 0.03901180 0.03694310
-0.01128980 0.03952920 0.03884410
-0.01178150 0.03477750 0.04295190
-0.00971651 0.03485410 0.04331860
-0.00876366 0.03473630 0.04362010
-0.00576935 0.03463020 0.04433510
0.00160174 0.03512750 0.04541750
0.00849938 0.03665850 0.04544840
-0.08100370 0.07777760 0.02800610
-0.07815070 0.11508900 0.04959910
-0.07329980 0.06544140 0.00491231
-0.07267480 0.06472230 0.00565049
-0.07205370 0.06400010 0.00639175
-0.06678130 0.03549510 0.03238610
-0.06425670 0.03449720 0.03377600
-0.06330690 0.03437680 0.03408230
-0.06128260 0.03437120 0.03451450
-0.05719230 0.03444040 0.03533060
-0.03584260 0.03458460 0.03975660
-0.03485130 0.03454250 0.04000190
-0.03381880 0.03457950 0.04019100
-0.03278460 0.03461620 0.04038140
-0.03080390 0.03453260 0.04087620
-0.02024150 0.03922820 0.03905670
-0.01143380 0.03476060 0.04480270
-0.00639449 0.03470930 0.04592490
-0.00535711 0.03475310 0.04610250
0.00019708 0.03565200 0.04645550
-0.08388150 0.11118700 0.04253050
-0.08381950 0.11325400 0.04624650
-0.07965540 0.07769310 0.03011080
-0.07702710 0.07432830 0.03001220
-0.07617520 0.11046800 0.04485940
-0.07381470 0.06574400 0.00631032
-0.06664000 0.06016390 0.01270940
-0.06404280 0.05931540 0.01399410
-0.06645010 0.03539180 0.03428070
-0.06481370 0.03466570 0.03524780
-0.06191920 0.03438170 0.03610870
-0.06093190 0.03433990 0.03635390
-0.05378520 0.03444270 0.03779400
-0.05275440 0.03448000 0.03798380
-0.04866200 0.03455020 0.03879850
-0.03945620 0.03472830 0.04061320
-0.03850290 0.03460690 0.04091800
-0.03544980 0.03463890 0.04154020
-0.02632310 0.03465800 0.04347350
-0.02413320 0.03496970 0.04367500
-0.01211340 0.03470530 0.04647200
-0.01112350 0.03466390 0.04671910
-0.01008840 0.03470130 0.04690690
-0.00354618 0.03558400 0.04753050
-0.00232938 0.03596070 0.04744590
-0.00118398 0.03625330 0.04734780
-0.08293190 0.11434200 0.04735560
-0.07068090 0.10931800 0.03785850
-0.08002410 0.07458730 0.02391490
-0.08609660 0.11232000 0.02681960
-0.08143200 0.07761410 0.02630440
-0.07487750 0.07391250 0.03257330
-0.07108410 0.06266580 0.01133190
-0.06665560 0.03606760 0.03538770
-0.06614700 0.03533560 0.03612540
-0.06346640 0.03459010 0.03732970
-0.06049260 0.03446530 0.03807560
-0.05950370 0.03442380 0.03832450
-0.05747720 0.03441950 0.03875900
-0.05648500 0.03437850 0.03900760
-0.05132560 0.03456590 0.03995020
-0.04517190 0.03471290 0.04114670
-0.03895560 0.03509860 0.04220800
-0.03790420 0.03505530 0.04240960
-0.03695450 0.03493470 0.04271770
-0.02790780 0.03479650 0.04477050
-0.01981600 0.03478010 0.04651310
-0.01580820 0.03469320 0.04744640
-0.01163890 0.03492300 0.04814360
-0.06504830 0.07016350 0.03611660
-0.06913230 0.07760980 0.03942540
-0.06983080 0.07194600 0.03532610
-0.07015480 0.14874101 -0.03664930
-0.06313590 0.06995250 0.03669920
-0.07720900 0.11037800 0.04469360
-0.06300720 0.06894850 0.03584680
-0.08826020 0.11193400 0.03738370
-0.07180100 0.07454070 0.03618840
-0.07147870 0.06309240 0.01274100
-0.07081340 0.06245230 0.01342680
-0.07007650 0.06196080 0.01398320
-0.06930770 0.06149520 0.01454370
-0.06680080 0.06045800 0.01596760
-0.06500070 0.06001710 0.01675710
-0.08870930 0.11235100 0.03874020
-0.06489280 0.03503740 0.03837900
-0.06112890 0.03447250 0.03966200
-0.04890610 0.03461010 0.04216930
-0.04354040 0.03519920 0.04282370
-0.04127690 0.03568140 0.04287900
-0.03732310 0.03549170 0.04391860
-0.03462140 0.03482420 0.04505530
-0.03358700 0.03486080 0.04524470
-0.03255440 0.03489850 0.04543090
-0.03156260 0.03485730 0.04567980
-0.02850780 0.03489130 0.04630890
-0.02648540 0.03488790 0.04674360
-0.01091550 0.03561880 0.04946670
-0.00737907 0.03672310 0.04915330
-0.00609738 0.03733900 0.04874810
-0.08142720 0.07524840 0.01953650
-0.08756960 0.11515600 0.04566100
-0.08909660 0.11481500 0.04380360
-0.08573700 0.11091500 0.03877370
-0.08519340 0.11068000 0.03730350
-0.05977810 0.06682490 0.03485980
-0.07183870 0.06361400 0.01401470
-0.06632630 0.06067540 0.01766570
-0.06539600 0.06051930 0.01802410
-0.06267540 0.05989500 0.01912640
-0.05985500 0.05948260 0.02008480
-0.06585210 0.03619930 0.03885060
-0.05969930 0.03453370 0.04161450
-0.05870930 0.03449250 0.04186250
-0.05771530 0.03445120 0.04210910
-0.05259650 0.03456260 0.04311880
-0.05160680 0.03452250 0.04336830
-0.05053230 0.03463920 0.04349610
-0.04727210 0.03507300 0.04383200
-0.07473220 0.07294430 0.03168280
-0.03501900 0.03535400 0.04625740
-0.03410190 0.03508950 0.04664680
-0.03319320 0.03488910 0.04701200
-0.03013640 0.03492350 0.04764260
-0.02311710 0.03479330 0.04926230
-0.02005890 0.03482820 0.04988780
-0.07468070 0.11013100 0.04368790
-0.06846480 0.06172110 0.01807970
-0.06392900 0.03540090 0.04166620
-0.06306310 0.03512060 0.04209090
-0.06211340 0.03500030 0.04239880
-0.06025180 0.03467800 0.04307090
-0.05414160 0.03474900 0.04432560
-0.05203470 0.03490670 0.04464890
-0.05094370 0.03495030 0.04486760
-0.07230240 0.11142800 0.04674450
-0.08064980 0.11029200 0.04220480
-0.08201500 0.11088600 0.04320090
-0.03515730 0.03617380 0.04719260
-0.03437250 0.03579230 0.04770300
-0.03356980 0.03541740 0.04820240
-0.03077210 0.03491360 0.04922000
-0.01837480 0.03534930 0.05152780
-0.06923890 0.14962900 -0.04021110
-0.02413290 0.15730201 -0.00905689
-0.06562640 0.15567000 -0.05120090
-0.06405450 0.14915200 -0.02699460
-0.06321590 0.14764699 -0.01640200
-0.02790280 0.16026101 -0.01369410
-0.00997005 0.17577900 -0.02920740
-0.06312980 0.14490600 -0.01011960
-0.00964830 0.17154600 -0.02707460
-0.06334210 0.14558800 -0.01311380
-0.01797790 0.15947001 -0.01039360
-0.06666300 0.14431700 -0.01546800
-0.01484750 0.16286500 -0.01594210
-0.06402580 0.15967999 -0.05625680
-0.06646050 0.15220401 -0.04373520
-0.01676450 0.16221800 -0.01511350
-0.04569650 0.14770100 -0.00292724
-0.03382410 0.15256900 -0.00489392
-0.03825250 0.15435800 -0.00883541
-0.06715900 0.15263399 -0.04769670
-0.04154390 0.14832599 -0.00168489
-0.06801550 0.14978100 -0.03847150
-0.02225980 0.16010299 -0.01294560
-0.03018300 0.15505099 -0.00785968
-0.04593770 0.14579201 0.00060105
-0.04568170 0.14662600 -0.00135754
-0.01489310 0.16180900 -0.01433930
-0.04469770 0.14748400 -0.00259540
-0.05006420 0.14299101 0.00242772
-0.06243970 0.16285001 -0.05483130
-0.06863400 0.15118501 -0.04424500
-0.04993160 0.14182200 0.00385784
-0.01457210 0.16869199 -0.02223330
-0.03977690 0.15229300 -0.00702124
-0.06950990 0.15135500 -0.04471290
-0.06399400 0.15267900 -0.03522180
-0.06940610 0.15307100 -0.04827380
-0.06951710 0.14123200 -0.00845814
-0.04742050 0.14582200 -0.00077716
-0.06846710 0.14089400 -0.00832284
-0.07176730 0.14606500 -0.02136050
-0.02763780 0.15895800 -0.01253950
-0.01512270 0.16097701 -0.01226610
