-0.34229599999999999 -0.422153 -0.16825499999999999
-0.27535999999999999 -0.41735100000000003 -0.17233299999999999
-0.26605000000000001 -0.404229 -0.173957
-0.35463899999999998 -0.400003 -0.17255599999999999
0.151481 0.28156300000000001 0.194273
0.194658 0.27559400000000001 0.19486000000000001
0.22775699999999999 0.27747100000000002 0.184971
-0.056905600000000001 -0.26975399999999999 0.180087
-0.087597900000000006 -0.26985500000000001 0.18159500000000001
0.13362399999999999 0.290599 0.17598
-0.037134399999999998 -0.25477499999999997 0.176568
0.203262 0.29969000000000001 0.176672
-0.103562 -0.26765499999999998 0.17582300000000001
-0.30126399999999998 -0.274339 -0.163553
-0.120322 -0.255048 -0.16791900000000001
0.228465 -0.27208300000000002 -0.16699
0.16736999999999999 -0.25372499999999998 -0.16991500000000001
-0.27919300000000002 -0.272704 -0.173483
-0.21363799999999999 -0.256523 -0.17077400000000001
-0.25444099999999997 -0.26177600000000001 -0.173763
-0.14189299999999999 -0.27007399999999998 -0.17461299999999999
-0.22614000000000001 -0.25992900000000002 -0.172903
-0.18834000000000001 -0.25234800000000002 -0.17342399999999999
0.28610999999999998 -0.262216 -0.17283799999999999
0.20507300000000001 -0.268845 -0.17422899999999999
0.27338400000000002 -0.27316499999999999 -0.174153
0.19613 -0.26592900000000003 -0.173877
-0.077427800000000005 -0.24068899999999999 0.196301
-0.0726387 -0.24939600000000001 0.19251399999999999
-0.12216399999999999 -0.2445 0.18215899999999999
0.184168 0.25087100000000001 0.18216199999999999
0.25117299999999998 0.25393700000000002 0.178282
0.24399599999999999 0.25024800000000003 0.177009
-0.13408200000000001 -0.23505000000000001 0.175707
0.14713799999999999 0.27060200000000001 0.17737800000000001
0.15822900000000001 0.255492 0.177179
-0.0331083 -0.24637899999999999 0.175676
0.21992600000000001 0.26848100000000003 0.17504900000000001
-0.022300199999999999 -0.23131099999999999 -0.15276500000000001
-0.053044500000000001 -0.232318 -0.15690100000000001
-0.045891500000000002 -0.228043 -0.158641
0.27355800000000002 -0.246499 -0.157197
0.119973 -0.228962 -0.15536800000000001
-0.098471000000000003 -0.231236 -0.160278
-0.23636299999999999 -0.24882399999999999 -0.15525
-0.20759 -0.245392 -0.16373299999999999
-0.12225800000000001 -0.24807100000000001 -0.16947000000000001
-0.18761800000000001 -0.243808 -0.169567
-0.134045 -0.24308099999999999 -0.173815
0.292906 -0.249472 -0.17347499999999999
-0.17396400000000001 -0.246146 -0.173238
0.142566 -0.233545 -0.17321900000000001
0.15957099999999999 -0.249559 -0.168879
0.282636 0.17882899999999999 0.196884
0.19543199999999999 -0.15185100000000001 0.19115499999999999
-0.115564 -0.15378600000000001 0.19358500000000001
-0.075906799999999996 -0.158273 0.18893099999999999
0.30349599999999999 0.193554 0.17516300000000001
0.214699 -0.155228 0.177895
-0.0507255 -0.16623599999999999 0.17593
-0.14996799999999999 -0.15232200000000001 0.17708299999999999
-0.151921 -0.170964 0.17738499999999999
-0.0481515 -0.174119 0.177644
0.263289 0.179726 0.177317
0.25163799999999997 -0.151925 0.17513500000000001
0.245194 -0.16266700000000001 0.178503
-0.0247882 -0.17019899999999999 -0.153471
-0.12973299999999999 -0.17301900000000001 -0.15167700000000001
0.073333700000000002 -0.17157800000000001 -0.15526100000000001
-0.105808 -0.17152700000000001 -0.15697900000000001
-0.042150399999999998 -0.17050399999999999 -0.15792999999999999
-0.071972700000000001 -0.17131099999999999 -0.16081500000000001
-0.080472799999999997 -0.173931 -0.161215
0.205037 -0.17186899999999999 -0.161161
0.099913000000000002 -0.174146 -0.17021900000000001
0.109847 -0.17374400000000001 -0.172347
0.177983 -0.17374100000000001 -0.17452300000000001
0.12560199999999999 -0.17246800000000001 -0.17339499999999999
0.170294 -0.172486 -0.17415700000000001
0.19880800000000001 0.40837600000000002 0.193218
0.12303799999999999 0.40057700000000002 0.176563
0.12681500000000001 0.41397400000000001 0.17882799999999999
0.204767 0.41190900000000003 0.17851800000000001
-0.27663100000000002 -0.39628600000000003 -0.158382
-0.34869099999999997 -0.38109999999999999 -0.16859199999999999
-0.35267100000000001 -0.38507999999999998 -0.174541
-0.26309300000000002 -0.39875899999999997 -0.172074
0.19579199999999999 0.39746500000000001 0.17612800000000001
0.113632 0.38064599999999998 0.17765400000000001
-0.323853 -0.35348800000000002 -0.15329799999999999
-0.253973 -0.372917 -0.168296
-0.240179 -0.356429 -0.17102300000000001
-0.34315400000000001 -0.36647999999999997 -0.17413699999999999
0.203018 -0.18343100000000001 -0.048705999999999999
-0.26595999999999997 -0.19483700000000001 -0.045164999999999997
0.199934 -0.19162499999999999 -0.045100000000000001
0.24098900000000001 0.221604 0.0018285199999999999
0.20861499999999999 0.20471900000000001 0.0018345200000000001
0.20179800000000001 -0.19413 0.0011775100000000001
-0.28059899999999999 -0.17846300000000001 0.0011805100000000001
0.21599099999999999 0.221446 0.054280000000000002
0.19916200000000001 -0.19714400000000001 0.0086665900000000001
-0.27199699999999999 -0.19606799999999999 0.051436999999999997
0.19873499999999999 0.200243 0.052297999999999997
0.17424700000000001 -0.19183600000000001 0.050377999999999999
0.17715700000000001 -0.177402 0.053800000000000001
0.22780700000000001 0.20536299999999999 0.052743999999999999
0.148172 -0.19994400000000001 0.069903199999999999
0.110531 0.35748000000000002 0.175562
0.176344 0.36368299999999998 0.17649200000000001
-0.19835900000000001 -0.327235 -0.16994400000000001
-0.328426 -0.34953299999999998 -0.17144300000000001
-0.32338699999999998 -0.34343099999999999 -0.17233399999999999
-0.205147 -0.32918700000000001 -0.173655
-0.230328 -0.34777400000000003 -0.17121900000000001
-0.019969199999999999 -0.32563900000000001 -0.045504000000000003
0.161246 -0.34604499999999999 -0.044828899999999998
-0.14855199999999999 -0.34834399999999999 -0.049322999999999999
-0.0512805 -0.341588 -0.045720999999999998
-0.028565299999999998 -0.32769700000000002 -0.049508000000000003
0.075168799999999994 -0.34137099999999998 -0.046898000000000002
-0.154114 -0.34528700000000001 -0.042933899999999997
0.074564699999999998 -0.33763599999999999 -0.038684900000000001
-0.18293100000000001 -0.33058599999999999 0.0054045500000000002
0.079978800000000003 -0.325517 0.0032645299999999999
0.154198 -0.33692499999999997 0.00097951000000000006
0.0016260199999999999 -0.33310000000000001 0.0014745100000000001
0.14874899999999999 -0.34220200000000001 0.0033935300000000001
-0.00052400500000000002 -0.33656799999999998 0.0084925799999999996
0.101718 -0.34941499999999998 0.018284700000000001
0.0059180600000000002 -0.334484 0.050368999999999997
-0.0099790999999999994 -0.347134 0.050339000000000002
-0.17724100000000001 -0.33938499999999999 0.050279999999999998
-0.169464 -0.34467300000000001 0.054621999999999997
-0.14979600000000001 -0.34897099999999998 0.067575200000000002
-0.0297463 -0.34935100000000002 0.073007199999999994
-0.123825 -0.19073899999999999 0.19961999999999999
-0.052427500000000002 -0.17793800000000001 0.18265300000000001
0.29039799999999999 0.21615000000000001 0.17564199999999999
0.249164 0.22042700000000001 0.17563400000000001
0.25310100000000002 0.20716200000000001 0.18049999999999999
-0.042382400000000001 -0.19126799999999999 0.17935999999999999
-0.14999299999999999 -0.18826599999999999 0.176787
-0.15296199999999999 -0.17929800000000001 0.175593
-0.17755799999999999 -0.196321 -0.150977
-0.024298199999999999 -0.18788299999999999 -0.15562999999999999
-0.15154300000000001 -0.199015 -0.157611
0.073514700000000002 -0.17913200000000001 -0.155613
-0.0492965 -0.199741 -0.161858
-0.087260900000000002 -0.18749199999999999 -0.16267499999999999
-0.065053700000000006 -0.19655800000000001 -0.163019
-0.116616 -0.19717499999999999 -0.16248399999999999
-0.13741700000000001 -0.19878299999999999 -0.160972
0.214335 -0.179588 -0.17050999999999999
0.098216999999999999 -0.188051 -0.172453
0.23669499999999999 -0.186642 -0.171073
0.106113 -0.19866400000000001 -0.17407900000000001
0.25588499999999997 -0.19497999999999999 -0.17103199999999999
0.19884099999999999 -0.17702599999999999 -0.172953
0.15035100000000001 0.077323799999999998 0.14596500000000001
0.191328 0.075409799999999999 0.145177
0.22028600000000001 0.076151800000000006 0.143264
0.0154482 -0.0685997 0.14432800000000001
0.045250499999999999 -0.052556499999999999 0.140296
0.13156499999999999 0.078151799999999993 0.141318
0.248395 0.077199799999999999 0.13719300000000001
-0.024317200000000001 -0.071669700000000003 0.14030899999999999
0.17070099999999999 -0.052795500000000002 0.141516
0.24759700000000001 -0.051034499999999997 0.13658799999999999
-0.17430699999999999 -0.055839600000000003 0.141597
-0.12906899999999999 -0.051868499999999998 0.13728799999999999
0.071214700000000006 -0.065868700000000002 0.13555500000000001
-0.047237500000000002 -0.051538500000000001 0.127801
0.102077 0.079122799999999993 0.12690199999999999
0.097985000000000003 -0.074082700000000001 0.127965
-0.19744800000000001 -0.056343600000000001 0.12654000000000001
0.198821 -0.068425700000000006 0.12889400000000001
-0.176007 -0.074617699999999995 -0.10213899999999999
-0.15296499999999999 -0.067044699999999999 -0.116067
-0.079840800000000003 -0.074145699999999995 -0.124057
-0.072960700000000003 -0.074704699999999999 -0.12107
-0.120986 -0.0666577 -0.12488200000000001
-0.14218900000000001 -0.074882699999999996 -0.12413100000000001
-0.064501600000000006 -0.068195699999999998 0.12610199999999999
-0.089438900000000002 -0.056758599999999999 0.126225
0.27155699999999999 0.095187999999999995 0.12599299999999999
0.20493400000000001 -0.070964700000000006 0.125442
0.108389 -0.068122699999999994 0.125054
0.27040399999999998 -0.073835700000000004 0.12834300000000001
-0.10523100000000001 -0.052360499999999997 0.130028
0.137518 -0.0048540500000000004 0.18390500000000001
0.100633 -0.0233382 0.17785599999999999
0.098057000000000005 0.027379299999999999 0.17644699999999999
0.109281 0.0317343 0.17508899999999999
0.092068899999999995 -0.00914009 0.177926
0.15984100000000001 -0.0101671 0.176952
0.119256 -0.0037420399999999999 -0.15078900000000001
0.13528599999999999 -0.0029660300000000001 -0.156996
0.21027199999999999 -0.0100721 -0.15818699999999999
0.17866099999999999 -0.0036700399999999998 -0.16206599999999999
0.16918 -0.0058790600000000002 -0.16070000000000001
0.14882400000000001 -0.025030299999999998 0.193858
0.096865999999999994 -0.034317300000000002 0.18829899999999999
0.116059 0.0230572 0.18356600000000001
0.17363100000000001 -0.029204299999999999 0.17896599999999999
0.187523 -0.0460565 0.17966499999999999
0.087810899999999997 0.0180062 0.17802599999999999
0.13304199999999999 0.0105211 0.176042
0.121852 -0.046013499999999999 0.17619199999999999
0.20192499999999999 0.00027300300000000002 -0.152282
0.094758899999999993 0.0086760899999999991 -0.15220900000000001
0.120644 0.0074830699999999997 -0.15770799999999999
0.14619699999999999 0.00069100699999999999 -0.160688
0.17979000000000001 0.0024820200000000001 -0.158611
0.16597600000000001 0.000242002 -0.16182199999999999
0.16844999999999999 -0.13092699999999999 0.198264
-0.11559800000000001 -0.129189 0.18123800000000001
0.20558499999999999 -0.143322 0.17562700000000001
0.30193300000000001 0.15631800000000001 0.180976
-0.096508999999999998 -0.130993 0.181534
-0.066110699999999994 -0.14876 0.17771700000000001
0.27783999999999998 0.15573200000000001 0.17880499999999999
-0.14108999999999999 -0.13028400000000001 0.17508399999999999
0.24490799999999999 -0.13623199999999999 0.17745
0.19892699999999999 -0.135658 0.175678
0.27221400000000001 0.15543899999999999 0.17507700000000001
-0.0471105 -0.146812 -0.151392
-0.10044500000000001 -0.147203 -0.15232799999999999
-0.068858699999999995 -0.138872 -0.15212100000000001
-0.091946899999999998 -0.14685799999999999 -0.153499
0.113958 -0.148476 -0.15284900000000001
0.130416 -0.14802499999999999 -0.15359700000000001
-0.095438999999999996 -0.27485799999999999 0.173038
-0.026896300000000001 -0.26239299999999999 0.16694600000000001
0.13308600000000001 0.29129500000000003 0.15335099999999999
-0.012874099999999999 -0.26281500000000002 0.15432399999999999
0.19403000000000001 0.28957899999999998 0.15152499999999999
-0.126975 -0.26869900000000002 0.15206
0.20753199999999999 0.27882200000000001 0.153422
-0.120161 -0.27358100000000002 0.15378700000000001
0.0072920700000000003 -0.25007299999999999 -0.13261600000000001
0.16236500000000001 -0.254687 -0.14182900000000001
-0.32642199999999999 -0.27346599999999999 -0.14498
-0.024276200000000001 -0.252888 -0.14549000000000001
0.211091 -0.26255699999999998 -0.149704
-0.105516 -0.25952700000000001 -0.14862
-0.062702599999999997 -0.250274 -0.14788299999999999
-0.090749899999999994 -0.25355299999999997 -0.145677
0.177478 -0.258936 -0.149344
-0.31401899999999999 -0.26742199999999999 -0.14924499999999999
-0.046700499999999999 -0.25258599999999998 -0.147427
0.147426 -0.25056299999999998 -0.149285
-0.25707000000000002 -0.253328 -0.14968400000000001
-0.278777 -0.25442700000000001 -0.14996699999999999
0.22812299999999999 -0.26171100000000003 -0.149313
-0.025889300000000001 -0.15815199999999999 0.149973
0.17633299999999999 0.18279000000000001 0.149727
0.30019800000000002 0.17994199999999999 0.146006
0.26173600000000002 0.17518500000000001 0.136714
-0.22334799999999999 -0.164298 0.13231699999999999
0.27800000000000002 0.17508699999999999 0.131578
0.27335500000000001 -0.15254200000000001 0.12948599999999999
-0.00160202 -0.170738 0.135493
-0.22645999999999999 -0.16057099999999999 0.12687699999999999
0.026512299999999999 -0.17451900000000001 0.13027
0.0204072 -0.17147799999999999 0.131161
0.163295 0.19139300000000001 0.128776
0.28653600000000001 -0.15321000000000001 0.12595999999999999
0.077301800000000004 -0.16001599999999999 0.125611
0.073499700000000001 -0.16814699999999999 0.125582
-0.22850100000000001 -0.170179 -0.109309
-0.195969 -0.15327499999999999 -0.122682
0.20305599999999999 -0.15639700000000001 -0.122446
0.19606000000000001 -0.151395 -0.123071
-0.20680200000000001 -0.16375500000000001 -0.122457
0.24367 0.17874300000000001 0.12562999999999999
0.14924699999999999 0.17618600000000001 0.12615999999999999
0.19558200000000001 -0.029405299999999999 0.16327800000000001
0.145316 0.022392200000000001 0.15831600000000001
0.123698 -0.025593299999999999 0.161749
0.098275000000000001 0.019566199999999999 0.15219299999999999
0.22506499999999999 -0.045843500000000002 0.15071399999999999
0.18543999999999999 0.00307603 0.15143699999999999
0.21745500000000001 -0.038909399999999997 0.152198
0.120763 0.053669500000000002 0.15060799999999999
0.107888 0.0067740700000000001 0.15207100000000001
0.13656599999999999 0.054241499999999998 0.151505
0.17488100000000001 0.016610199999999999 0.15038699999999999
0.146398 -0.037109400000000001 0.15030099999999999
0.15067800000000001 -0.042709400000000002 0.15065799999999999
0.043933399999999997 0.022709199999999999 -0.136465
0.22520299999999999 -0.025718299999999999 -0.13827
0.225272 0.0021840200000000001 -0.14197699999999999
0.213426 -0.0250943 -0.145314
0.065960699999999997 0.0150902 -0.143817
0.14561099999999999 0.017379200000000001 -0.14660500000000001
0.102286 0.0231132 -0.14629800000000001
0.091124899999999995 0.019011199999999999 -0.149504
0.153977 0.015171199999999999 -0.148284
0.20671500000000001 0.0023160199999999998 -0.147679
0.18465899999999999 0.0087300899999999994 -0.14941699999999999
-0.051445499999999998 -0.30345 0.153305
0.121568 0.34764899999999999 0.15403700000000001
0.18238299999999999 0.326405 0.15423500000000001
0.132908 0.32679200000000003 0.15099099999999999
0.159973 0.347528 0.150699
-0.299427 -0.32142500000000002 -0.140796
-0.30169699999999999 -0.30404799999999998 -0.147842
-0.14250199999999999 -0.30031600000000003 -0.14833299999999999
-0.17632 -0.32248700000000002 -0.148891
-0.15621199999999999 -0.310834 -0.14834600000000001
-0.0806838 -0.12959300000000001 0.17494899999999999
-0.14743800000000001 -0.12714200000000001 0.17116100000000001
-0.17016300000000001 -0.14393500000000001 0.165574
-0.050242500000000002 -0.12919800000000001 0.15468100000000001
0.17341599999999999 0.16283 0.15024699999999999
0.19015399999999999 0.15157200000000001 0.15279400000000001
0.22064400000000001 -0.12698200000000001 0.15131
0.22465099999999999 0.156832 0.15093400000000001
-0.19588900000000001 -0.12503800000000001 0.15262500000000001
-0.202546 -0.14453099999999999 0.15163499999999999
0.272059 -0.149371 0.15215699999999999
0.23171 0.16114899999999999 0.15001400000000001
0.23896300000000001 -0.145402 0.15001400000000001
0.31203500000000001 0.15964999999999999 0.15172099999999999
-0.035484399999999999 -0.14622099999999999 0.15248
0.25202400000000003 0.15559899999999999 0.15087400000000001
-0.17920700000000001 -0.149561 -0.12735099999999999
0.044323399999999999 -0.14515400000000001 -0.12651499999999999
0.0062320600000000002 -0.147671 -0.126306
-0.15460599999999999 -0.14403199999999999 -0.134797
0.18624499999999999 -0.14952299999999999 -0.134102
-0.0229812 -0.14249100000000001 -0.140516
0.074790700000000002 -0.14529300000000001 -0.141065
-0.13245999999999999 -0.14367099999999999 -0.14302799999999999
-0.094602900000000004 -0.12534200000000001 -0.14863000000000001
-0.117351 -0.142651 -0.14782000000000001
0.146233 -0.14554400000000001 -0.14957400000000001
-0.044837399999999999 -0.13930999999999999 -0.147781
0.16350600000000001 -0.146699 -0.14464399999999999
-0.063347600000000004 -0.13192000000000001 -0.14921499999999999
0.093809900000000002 -0.14895800000000001 -0.14888000000000001
0.109391 -0.14398 -0.14771200000000001
0.20216400000000001 0.30092200000000002 0.170819
0.12427299999999999 0.32402999999999998 0.162518
-0.071510699999999996 -0.299205 0.15536800000000001
-0.087191900000000003 -0.29171200000000003 0.157749
-0.10363 -0.28842499999999999 0.152169
0.13214699999999999 0.316436 0.15159400000000001
-0.020370200000000002 -0.28439199999999998 0.151784
0.18461 0.31933400000000001 0.15296799999999999
-0.0324563 -0.29856199999999999 0.15131500000000001
-0.056999599999999997 -0.27519399999999999 -0.12909499999999999
-0.024921200000000001 -0.27787800000000001 -0.125301
-0.048204499999999997 -0.275507 -0.130215
-0.120355 -0.27789399999999997 -0.14923700000000001
-0.13394700000000001 -0.29250799999999999 -0.147838
-0.32593699999999998 -0.27779199999999998 -0.14924100000000001
-0.31232300000000002 -0.28437499999999999 -0.149565
0.27835100000000002 0.22776099999999999 0.172378
0.17542199999999999 0.23216700000000001 0.171956
0.27292300000000003 0.226106 0.167432
-0.14497299999999999 -0.22353600000000001 0.16797799999999999
-0.026715300000000001 -0.20353199999999999 0.16721900000000001
-0.17080300000000001 -0.22342500000000001 0.15220500000000001
0.22445799999999999 0.239844 0.15151700000000001
-0.18777099999999999 -0.21727299999999999 0.15262100000000001
0.15639800000000001 0.238843 0.15198999999999999
-0.0134641 -0.20668500000000001 0.153451
0.24849199999999999 -0.206673 -0.128721
-0.22613800000000001 -0.22225400000000001 -0.13406399999999999
0.074324699999999994 -0.20935999999999999 -0.137073
0.025862300000000001 -0.21047299999999999 -0.141127
0.105393 -0.22357299999999999 -0.14546600000000001
-0.194797 -0.20324500000000001 -0.14705799999999999
0.0065750699999999997 -0.211039 -0.146566
-0.20094500000000001 -0.21087500000000001 -0.147562
-0.0075080800000000003 -0.20949999999999999 -0.149811
0.26499699999999998 -0.22044800000000001 -0.14532300000000001
0.090372900000000006 -0.20944299999999999 -0.14963000000000001
0.17588899999999999 0.35077799999999998 0.164192
0.149281 0.35317999999999999 0.15127599999999999
0.15545 0.35128799999999999 0.15310499999999999
0.11719300000000001 0.35890100000000003 0.15005199999999999
-0.22570699999999999 -0.34535100000000002 -0.13090299999999999
-0.298068 -0.33905999999999997 -0.132046
-0.313693 -0.34130899999999997 -0.14930099999999999
-0.196573 -0.332623 -0.14710999999999999
-0.20416799999999999 -0.33621499999999999 -0.149897
-0.0257643 -0.24771199999999999 0.16964299999999999
0.216082 0.26748499999999997 0.15395600000000001
0.150672 0.2571 0.154002
-0.18504599999999999 -0.225018 0.15118899999999999
-0.15373100000000001 -0.24221100000000001 0.15083299999999999
-0.14718300000000001 -0.24762799999999999 0.15329000000000001
0.14946899999999999 0.25541000000000003 0.15071300000000001
-0.0056640600000000003 -0.23194699999999999 0.15021999999999999
0.050114499999999999 -0.228243 -0.126163
0.21535699999999999 -0.24848500000000001 -0.129522
0.097826999999999997 -0.230633 -0.130415
0.028926299999999999 -0.22820799999999999 -0.134266
0.23960300000000001 -0.249422 -0.13991899999999999
0.0018870200000000001 -0.22537099999999999 -0.14522599999999999
0.12998699999999999 -0.242178 -0.14741299999999999
0.112127 -0.22667000000000001 -0.14997199999999999
-0.019153199999999999 -0.238425 -0.149585
-0.026229300000000001 -0.24746699999999999 -0.14899999999999999
0.26808599999999999 -0.22689599999999999 -0.14840999999999999
-0.220994 -0.23619899999999999 -0.149229
-0.24491499999999999 -0.24951000000000001 -0.14697399999999999
-0.070415699999999998 -0.24821099999999999 -0.148616
-0.095477000000000006 -0.24870400000000001 -0.14985499999999999
0.17202200000000001 0.024397200000000001 0.147645
0.098794999999999994 0.0238342 0.14902899999999999
0.21391399999999999 -0.025078300000000001 0.146064
0.16805 0.052205500000000002 0.143264
0.13273199999999999 0.073495699999999997 0.14318
0.0092790900000000003 -0.025487300000000001 0.14083599999999999
-0.0147111 -0.032320300000000003 0.14000699999999999
0.047599500000000003 -0.028804300000000001 0.135986
0.19134699999999999 0.050854499999999997 0.13792099999999999
0.212337 0.051318500000000003 0.13344
0.072470699999999999 -0.025033300000000001 0.130801
0.097574999999999995 0.065686700000000001 0.125027
0.19531599999999999 0.0237412 0.13592299999999999
0.244864 -0.042350400000000003 0.133573
-0.19103999999999999 -0.044128399999999998 0.12534699999999999
-0.16492599999999999 -0.0292473 0.127388
-0.114871 -0.044223400000000003 0.12748499999999999
0.17527499999999999 -0.045054499999999997 0.127109
0.100395 0.072597700000000001 0.12804399999999999
0.24773200000000001 0.0548955 0.12725800000000001
0.051997500000000002 0.0117871 0.125109
0.101407 0.0026170299999999998 0.125307
0.093917899999999999 -0.025612300000000001 0.12835299999999999
-0.14018600000000001 -0.032863299999999998 0.12692600000000001
0.111752 -0.037339400000000002 0.125053
-0.15442 -0.049988499999999998 -0.103978
-0.025401300000000002 0.052042499999999998 -0.10249800000000001
-0.117992 -0.047885499999999998 -0.107353
0.112787 0.053363500000000001 -0.102146
0.12734999999999999 0.053002500000000001 -0.101271
-0.12650400000000001 -0.0463065 -0.106354
0.13108300000000001 0.0029350299999999999 -0.106154
0.085859900000000003 0.052767500000000002 -0.110639
0.051422500000000003 0.051970500000000003 -0.11033999999999999
0.018771199999999998 0.054051500000000002 -0.11350200000000001
0.045304499999999998 0.054448499999999997 -0.106755
-0.0041130400000000001 0.050143500000000001 -0.114688
0.0242852 0.024547200000000002 -0.112591
0.21940699999999999 0.0152272 -0.124491
0.23279 0.0091510900000000006 -0.123138
0.0252683 0.023993199999999999 -0.120921
0.053821500000000001 0.016656199999999999 -0.11436200000000001
0.077281799999999998 0.0093190900000000004 -0.121964
0.19390299999999999 0.023444199999999998 -0.12243999999999999
0.101355 0.00348803 -0.122822
0.21221000000000001 0.0140141 0.12711500000000001
0.253631 0.059037600000000003 0.126774
0.163215 -0.040768400000000003 0.12504100000000001
0.13828399999999999 -0.027881300000000001 0.125525
-0.0429294 -0.027580299999999999 0.12503700000000001
-0.00214402 0.0064970599999999998 0.12582499999999999
0.25078899999999998 -0.0394604 0.12712300000000001
0.020839199999999999 0.010858100000000001 0.12648000000000001
0.0306203 0.011323099999999999 0.12701100000000001
0.22036500000000001 -0.15404200000000001 0.17205599999999999
-0.051181499999999998 -0.15349499999999999 0.16947899999999999
-0.168433 -0.17454600000000001 0.16570299999999999
0.24296799999999999 -0.15296899999999999 0.15290999999999999
0.226883 0.17868700000000001 0.15110399999999999
-0.199574 -0.17184199999999999 0.154223
0.222441 0.18431600000000001 0.15314900000000001
0.26415300000000003 0.17985599999999999 0.15381500000000001
-0.204735 -0.153202 0.15090300000000001
0.30516399999999999 0.17516899999999999 0.15007000000000001
0.25753999999999999 -0.16253500000000001 0.15187600000000001
-0.021606199999999999 -0.17233000000000001 0.152033
-0.025610299999999999 -0.16529199999999999 0.15284900000000001
0.17389199999999999 0.19956099999999999 0.15148400000000001
0.28737400000000002 0.19692000000000001 0.150203
0.175508 0.189771 0.15029699999999999
0.225053 -0.17368 -0.130271
-0.20331399999999999 -0.168906 -0.12687699999999999
0.049118500000000002 -0.16500999999999999 -0.13690099999999999
-0.17625399999999999 -0.17249999999999999 -0.13874
0.00222902 -0.17300099999999999 -0.144424
-0.153334 -0.16821 -0.143207
-0.025879300000000001 -0.155385 -0.149034
-0.11684 -0.15239800000000001 -0.14974499999999999
-0.0110171 -0.17154900000000001 -0.149451
0.066450700000000001 -0.158029 -0.14608599999999999
0.195434 -0.160022 -0.145955
-0.12559699999999999 -0.15639800000000001 -0.14821799999999999
0.086295899999999995 -0.15040000000000001 -0.14837400000000001
0.21975800000000001 -0.17232900000000001 -0.14720900000000001
0.097125000000000003 -0.0036720400000000001 0.16884199999999999
0.172509 -0.00344503 0.16411999999999999
0.14854300000000001 0.0305343 0.15104600000000001
0.0964 0.029599299999999999 0.150173
0.201626 -0.016894200000000002 0.151196
0.101102 0.043000400000000001 0.15453900000000001
0.191665 -0.0033980299999999998 0.150669
0.12235600000000001 -0.010615100000000001 0.151974
0.130631 -0.0207742 0.151702
0.018608199999999998 0.036320400000000003 -0.127162
0.16274 0.025623300000000002 -0.13197600000000001
0.040128400000000002 0.029317300000000001 -0.136101
0.082482799999999995 0.0278423 -0.140184
0.129023 0.0276543 -0.138488
0.073847700000000002 0.025582299999999999 -0.143845
0.114525 0.027327299999999999 -0.141568
0.22784499999999999 -0.0095621000000000005 -0.147841
0.112884 -0.0024990199999999998 -0.14882899999999999
0.18720000000000001 -0.0217602 -0.14843500000000001
0.20663999999999999 -0.024477200000000001 -0.14668100000000001
0.125393 -0.0059810599999999998 -0.14972199999999999
0.151758 -0.013418100000000001 -0.14854800000000001
0.149807 0.41033999999999998 0.156611
0.19564100000000001 0.40922700000000001 0.15002499999999999
0.161886 0.40709899999999999 0.151167
0.20462900000000001 0.41439599999999999 0.15321399999999999
-0.26107399999999997 -0.37720700000000001 -0.149091
-0.29500500000000002 -0.39424399999999998 -0.149421
-0.30440899999999999 -0.39620899999999998 -0.14840500000000001
0.12279900000000001 0.38249100000000003 0.16952700000000001
0.14380799999999999 0.39001200000000003 0.16112000000000001
0.18038799999999999 0.39841500000000002 0.15550700000000001
0.173484 0.39939000000000002 0.15299199999999999
-0.29465400000000003 -0.37471500000000002 -0.13647799999999999
-0.31873000000000001 -0.35419600000000001 -0.14735599999999999
-0.25487799999999999 -0.37193100000000001 -0.14684
-0.24778700000000001 -0.36657699999999999 -0.14756900000000001
-0.027542299999999999 -0.190441 0.16384099999999999
-0.16314999999999999 -0.199158 0.16195100000000001
0.26331399999999999 0.20157900000000001 0.162323
0.22406599999999999 0.20733599999999999 0.15435399999999999
-0.199352 -0.19792199999999999 0.151834
0.22770599999999999 0.21266199999999999 0.15063099999999999
0.29010000000000002 0.201738 0.15664700000000001
-0.20460500000000001 -0.17632600000000001 0.15123700000000001
0.17447599999999999 0.20710100000000001 0.152203
-0.018548200000000001 -0.185338 0.15336
0.190332 0.213805 0.16647300000000001
-0.20652200000000001 -0.19819999999999999 -0.13717299999999999
0.043987400000000003 -0.190523 -0.14010600000000001
0.077837799999999999 -0.19964499999999999 -0.14877399999999999
0.064950599999999997 -0.18410699999999999 -0.14533099999999999
0.0027670300000000002 -0.19867699999999999 -0.148169
0.256749 -0.19881599999999999 -0.148538
-0.14388599999999999 -0.179399 -0.14959
0.24057000000000001 -0.18484 -0.14752000000000001
-0.00204002 -0.190943 -0.149946
-0.185361 -0.19797500000000001 -0.14901
-0.165516 -0.18432499999999999 -0.14805699999999999
0.14776 0.43173699999999998 0.15921399999999999
0.21625 0.43308799999999997 0.151361
0.15241199999999999 0.42816399999999999 0.15344099999999999
-0.310338 -0.40044999999999997 -0.14938499999999999
0.24706900000000001 -0.102496 0.16433600000000001
-0.144205 -0.103852 0.16236999999999999
-0.100864 -0.103863 0.164023
-0.171623 -0.103459 0.157166
-0.084185800000000005 -0.101794 0.15768299999999999
0.15112800000000001 0.14291300000000001 0.15406800000000001
0.29969299999999999 0.12698599999999999 0.15126899999999999
-0.052042499999999998 -0.121472 0.15178800000000001
0.145289 0.13811899999999999 0.15271399999999999
0.26669799999999999 0.12635299999999999 0.152943
0.26125799999999999 -0.10309400000000001 0.151036
0.19967199999999999 0.14152300000000001 0.152089
0.30532599999999999 0.13006000000000001 0.15187400000000001
0.23577699999999999 0.125777 0.15038499999999999
0.204656 0.12728500000000001 0.15184500000000001
-0.18071499999999999 -0.100587 0.15387000000000001
0.19650400000000001 -0.101244 0.15348100000000001
0.206759 -0.117746 0.15648400000000001
0.089577900000000002 -0.12425899999999999 -0.12649199999999999
0.134743 -0.12177 -0.12593599999999999
-0.15201400000000001 -0.105726 -0.12737100000000001
0.10365199999999999 -0.122864 -0.126945
-0.129887 -0.121033 -0.140347
-0.048787499999999998 -0.118224 -0.139738
-0.101895 -0.12059400000000001 -0.14684900000000001
-0.063369599999999998 -0.119589 -0.14494299999999999
-0.085807900000000006 -0.124779 -0.14904300000000001
0.218809 -0.076188800000000001 0.173258
0.16911300000000001 -0.075800800000000002 0.15884999999999999
0.24748700000000001 -0.075942800000000005 0.15141199999999999
0.140013 0.118685 0.15164
-0.077352799999999999 -0.098599000000000006 0.15230299999999999
0.27117799999999997 0.122989 0.15276899999999999
0.17068 0.102384 0.152778
-0.16112699999999999 -0.082161799999999993 0.15243999999999999
0.23243 0.117551 0.150473
0.207647 0.104868 0.150062
-0.12614400000000001 -0.077564800000000003 0.15078900000000001
0.25245099999999998 -0.082040799999999997 0.15046200000000001
-0.18742600000000001 -0.097705 0.150421
0.19166900000000001 0.11715100000000001 0.15002799999999999
0.28865200000000002 0.12034400000000001 0.15435399999999999
0.18056700000000001 -0.077343800000000004 0.150834
-0.116301 -0.079755800000000002 0.15076400000000001
-0.151396 -0.096959000000000004 -0.12617600000000001
-0.13427700000000001 -0.098991999999999997 -0.13475400000000001
-0.065821699999999997 -0.098985000000000004 -0.13602
-0.11481 -0.097310999999999995 -0.13881299999999999
-0.087794899999999995 -0.099973999999999993 -0.14092499999999999
0.17810599999999999 0.32683499999999999 0.14544099999999999
0.126134 0.34434300000000001 0.130686
-0.0338433 -0.31753100000000001 0.131856
0.124366 0.349908 0.13151599999999999
-0.082634799999999994 -0.315133 0.12903100000000001
0.162713 0.33874799999999999 0.125107
-0.050387500000000002 -0.32185200000000003 0.125974
-0.27286199999999999 -0.32449499999999998 -0.11175599999999999
-0.14712900000000001 -0.30188500000000001 -0.116573
-0.20113400000000001 -0.32359100000000002 -0.112107
-0.30503599999999997 -0.30478699999999997 -0.12295399999999999
-0.168989 -0.31403300000000001 -0.123667
-0.33073000000000002 -0.30051600000000001 -0.11877600000000001
-0.29916900000000002 -0.30742000000000003 -0.12388
-0.187027 -0.32128499999999999 -0.12112299999999999
-0.017258200000000001 -0.31262899999999999 0.127386
-0.114746 -0.30494300000000002 0.12536800000000001
-0.097087000000000007 -0.29743999999999998 0.145399
-0.0051620499999999996 -0.29369000000000001 0.13201299999999999
-0.173591 -0.28249800000000003 0.128417
-0.17838000000000001 -0.27603800000000001 0.13094900000000001
-0.124567 -0.29549799999999998 0.12998199999999999
0.14541200000000001 0.32115100000000002 0.12790599999999999
0.17688000000000001 0.301564 0.126301
0.163827 0.30006300000000002 0.12629899999999999
-0.27077600000000002 -0.275057 -0.106963
-0.28042600000000001 -0.27658500000000003 -0.10898099999999999
0.0040440399999999996 -0.27518999999999999 -0.108916
-0.11805599999999999 -0.285159 -0.12350700000000001
-0.077094800000000005 -0.27946900000000002 -0.119931
-0.138409 -0.298068 -0.11836099999999999
-0.32696900000000001 -0.29981600000000003 -0.123295
-0.016111199999999999 -0.27529799999999999 -0.123872
-0.043785400000000002 -0.28172199999999997 -0.124515
-0.071812699999999993 -0.276028 -0.124852
0.0068830699999999998 -0.28484900000000002 0.126137
-0.129497 -0.29908400000000002 0.12570899999999999
-0.00314103 -0.26857300000000001 0.14255599999999999
-0.145981 -0.27391100000000002 0.138178
-0.15233099999999999 -0.27185900000000002 0.13899800000000001
0.147117 0.29470099999999999 0.13480500000000001
-0.19520299999999999 -0.26960400000000001 0.12818199999999999
0.20350699999999999 0.27776099999999998 0.13045499999999999
0.0148751 -0.25953599999999999 0.12642200000000001
-0.20333000000000001 -0.26522899999999999 0.126194
0.088625899999999994 -0.25071300000000002 -0.10125199999999999
0.050093499999999999 -0.251085 -0.110586
0.0255523 -0.25527100000000003 -0.11827799999999999
0.147704 -0.2505 -0.123127
-0.0069580700000000002 -0.26900400000000002 -0.124569
-0.26605099999999998 -0.26037900000000003 -0.120291
-0.27946599999999999 -0.263044 -0.122998
-0.095503000000000005 -0.274418 -0.12438200000000001
0.016392199999999999 -0.25648799999999999 -0.122173
-0.324459 -0.26072299999999998 -0.12475700000000001
-0.33891900000000003 -0.26762599999999998 -0.12467499999999999
0.15457399999999999 0.279113 0.12636800000000001
0.19828100000000001 0.28173599999999999 0.12540200000000001
0.14902199999999999 -0.054565500000000003 0.16100700000000001
0.22297700000000001 -0.052657500000000003 0.15540300000000001
0.231179 -0.052097499999999998 0.15012900000000001
0.170572 0.098404000000000005 0.150703
0.16786200000000001 -0.064200599999999997 0.15212000000000001
-0.095209000000000002 -0.073223700000000003 -0.127887
-0.119935 -0.072879700000000006 -0.12864
0.19911200000000001 -0.0013520100000000001 0.14426900000000001
0.17369100000000001 0.038226400000000001 0.14150499999999999
0.15123300000000001 -0.023027200000000001 0.13623099999999999
0.0022840199999999999 -0.0053490500000000002 0.13295799999999999
0.10294300000000001 0.035385399999999997 0.13200500000000001
0.049924499999999997 -0.00297803 0.130273
0.221246 -0.0073570700000000003 0.131382
0.099837999999999996 0.0314503 0.12699199999999999
0.068935700000000003 -0.00054000499999999998 0.127438
0.087265899999999993 -0.0143351 0.12715499999999999
0.110903 -0.015627200000000001 0.125502
0.127942 -0.022261199999999998 0.12509100000000001
0.21310399999999999 0.0254553 -0.110833
-1.00001e-06 0.046054499999999998 -0.117746
0.095501000000000003 0.040077399999999999 -0.12350800000000001
0.19387299999999999 0.027659300000000001 -0.116286
0.072824700000000006 0.0447964 -0.124098
0.123626 -0.00193702 -0.12410599999999999
0.138991 0.036487400000000003 -0.122693
0.13838900000000001 -0.0041770399999999999 -0.121112
0.027777300000000001 0.043992400000000001 -0.12249599999999999
0.10198500000000001 0.042414399999999998 -0.119074
0.15737699999999999 -0.0094670899999999992 -0.123872
0.228577 -0.022853200000000001 -0.120837
0.16322400000000001 0.030035300000000001 -0.12435499999999999
0.17840900000000001 -0.014542100000000001 -0.12493
0.208394 -0.020494200000000001 -0.124822
0.020755200000000001 0.043829399999999998 -0.123227
0.205875 0.028721300000000002 0.125531
0.23458699999999999 0.049562500000000002 0.12781999999999999
0.23516400000000001 -0.016252200000000001 0.12565200000000001
-0.0232372 -0.0042700400000000001 0.12500500000000001
0.197547 0.0378584 0.12670300000000001
-0.036064400000000003 -0.015596199999999999 0.12679299999999999
-0.248998 -0.35149200000000003 -0.121348
-0.27956199999999998 -0.354713 -0.124775
-0.266621 -0.35783199999999998 -0.124641
-0.1981 -0.222973 0.146726
-0.0013640099999999999 -0.20998800000000001 0.141818
0.14965300000000001 0.24939900000000001 0.13889199999999999
0.22642599999999999 0.23033300000000001 0.128329
0.15602199999999999 0.23022699999999999 0.127772
-0.22427900000000001 -0.22458 0.12584100000000001
0.21910099999999999 0.23976600000000001 0.12917899999999999
0.21962300000000001 -0.22092800000000001 -0.10785400000000001
-0.23272000000000001 -0.21560599999999999 -0.123351
0.24452699999999999 -0.21331800000000001 -0.124069
0.016023200000000001 -0.21584500000000001 0.126581
0.175009 0.16967499999999999 0.14946999999999999
-0.0310263 -0.127834 0.14146700000000001
0.043888400000000001 -0.14744099999999999 0.137902
0.00391604 -0.14794099999999999 0.13720399999999999
0.24258099999999999 -0.12990599999999999 0.135439
-0.00281103 -0.14955399999999999 0.13474
0.150814 0.169959 0.13467199999999999
0.30173499999999998 0.152369 0.12907299999999999
0.074251700000000004 -0.12892300000000001 0.13107199999999999
0.25617600000000001 0.17332400000000001 0.125946
0.249746 0.173542 0.12857099999999999
-0.17432400000000001 -0.13164100000000001 -0.120458
-0.201433 -0.14879200000000001 -0.11779199999999999
0.064343600000000001 -0.12833 -0.123434
-0.015391200000000001 -0.130886 -0.124567
0.17582700000000001 -0.13836699999999999 -0.124241
-0.18388699999999999 -0.14452599999999999 -0.12298000000000001
0.0117941 -0.14377799999999999 -0.121712
0.027376299999999999 -0.145234 -0.121976
0.155194 -0.127107 -0.124046
-0.22209300000000001 -0.138651 0.12526999999999999
0.292765 -0.13513500000000001 0.12520100000000001
0.25025199999999997 -0.12567700000000001 0.125691
0.140015 0.16592899999999999 0.12761700000000001
0.087497900000000003 -0.138734 0.12516099999999999
0.28315400000000002 0.166631 0.12664900000000001
-0.030126300000000002 0.097308000000000006 -0.044434899999999999
-0.017795200000000001 0.095269999999999994 -0.045215999999999999
-0.048023499999999997 -0.055249600000000003 -0.045506999999999999
0.15825800000000001 -0.061135599999999998 -0.048209000000000002
-0.0079390799999999994 -0.068731700000000007 -0.048934999999999999
-0.20712800000000001 -0.072008699999999995 -0.046915999999999999
0.0256913 0.086318900000000004 -0.046795000000000003
-0.0540425 -0.053116499999999997 -0.048857999999999999
0.0032190299999999999 -0.063055600000000003 -0.049065999999999999
0.14999499999999999 -0.058111599999999999 -0.049416000000000002
0.017498199999999998 0.086502899999999994 -0.048890999999999997
-0.19889699999999999 -0.053454500000000002 -0.044966899999999997
0.126608 0.076280799999999996 -0.041948899999999997
0.10097399999999999 0.0796568 -0.044815899999999999
0.0521895 0.083057800000000001 -0.048367
0.0861759 0.080622799999999994 -0.047968999999999998
-0.050132500000000003 0.077148800000000003 -0.040185899999999997
0.18199499999999999 -0.070471699999999998 -0.0408209
0.150065 0.077715800000000002 -0.0258368
-0.21606300000000001 -0.070780700000000002 0.0034595300000000002
0.056475600000000001 0.098444000000000004 0.0019035199999999999
0.25685599999999997 0.084906800000000004 0.0016285200000000001
0.0084910799999999998 0.0883549 0.0018695199999999999
0.105423 0.088831900000000005 0.000367504
0.16070200000000001 0.090520900000000001 0.00010450099999999999
0.027586300000000001 0.09776 0.00039350399999999998
0.22830500000000001 -0.066831699999999994 0.0012965100000000001
0.13697300000000001 0.092070899999999997 0.0011485099999999999
0.085516900000000007 0.090962899999999999 0.00255953
-0.20982500000000001 -0.055643600000000001 0.052905000000000001
0.074285699999999996 0.089074899999999999 0.050612999999999998
0.21734899999999999 -0.074738700000000005 0.051785999999999999
0.078694799999999995 0.094344899999999995 0.052364000000000001
0.27303100000000002 0.084461800000000004 0.051020999999999997
0.22850799999999999 -0.0521685 0.052068999999999997
0.27777299999999999 0.097156000000000006 0.061115099999999999
0.27149000000000001 -0.060022600000000002 0.067616200000000001
0.28056700000000001 -0.055562599999999997 0.072130200000000005
0.12255099999999999 0.35408600000000001 0.13617399999999999
0.141817 0.35367300000000002 0.12801599999999999
-0.27132400000000001 -0.3372 -0.114964
-0.20402200000000001 -0.32880199999999998 -0.119656
-0.288991 -0.33213700000000002 -0.124642
-0.22733200000000001 -0.34293899999999999 -0.12357700000000001
0.24751400000000001 0.129914 0.14885799999999999
0.25539299999999998 0.12698300000000001 0.148982
0.18565999999999999 0.13675799999999999 0.14357300000000001
-0.198798 -0.106805 0.14530299999999999
0.021668199999999999 -0.121475 0.14272499999999999
-0.054026499999999998 -0.105943 0.14463699999999999
0.036832400000000001 -0.124665 0.14149600000000001
0.27326299999999998 -0.11856999999999999 0.140628
-0.021129200000000001 -0.118947 0.13666200000000001
-0.0279493 -0.120364 0.13717699999999999
0.22350999999999999 -0.102912 0.132271
0.070812700000000006 -0.12169000000000001 0.132991
-0.216114 -0.12187000000000001 0.12781400000000001
0.127138 0.14397799999999999 0.133772
0.30410300000000001 0.13905899999999999 0.12929199999999999
0.00114401 -0.119778 -0.10428
-0.175785 -0.11365500000000001 -0.112854
0.049205499999999999 -0.119847 -0.11213099999999999
0.15922600000000001 -0.123602 -0.116151
0.071495699999999995 -0.124169 -0.122641
0.091633900000000004 -0.11731999999999999 -0.12092
0.11709899999999999 -0.116933 -0.12212099999999999
-0.024687199999999999 -0.119487 -0.12238599999999999
-0.15787599999999999 -0.102877 -0.122809
-0.037417400000000003 -0.108552 -0.124498
0.14726300000000001 -0.12414600000000001 -0.124376
0.287717 -0.113215 0.12515100000000001
0.238065 -0.11072899999999999 0.12543699999999999
0.0907829 -0.123159 0.12654599999999999
0.100567 -0.10335900000000001 0.12535299999999999
0.11673799999999999 0.13850100000000001 0.125669
0.17315700000000001 0.10274999999999999 0.14805599999999999
-0.10696799999999999 -0.080987799999999999 0.149537
-0.168827 -0.077570799999999995 0.149947
0.24510699999999999 0.114856 0.147755
0.200184 0.115505 0.148646
0.18798699999999999 0.105295 0.144784
0 -0.084566799999999998 0.143595
0.12811900000000001 0.106832 0.14158899999999999
0.046806500000000001 -0.094903899999999999 0.141536
-0.081623799999999996 -0.078230800000000003 0.13958200000000001
-0.023500199999999999 -0.081617800000000004 0.13900699999999999
-0.198661 -0.082839800000000005 0.13656699999999999
0.065452700000000003 -0.097063999999999998 0.13727300000000001
0.30344700000000002 0.124086 0.13639799999999999
0.19944700000000001 -0.079119800000000004 0.13650399999999999
0.27292100000000002 0.103133 0.12980900000000001
-0.046115499999999997 -0.082020800000000005 0.13062699999999999
-0.057241599999999997 -0.079773800000000006 0.13114700000000001
0.298342 0.124542 0.12712699999999999
0.110235 0.102391 0.13037399999999999
0.27190900000000001 -0.082791799999999999 0.12989500000000001
0.096152000000000001 -0.095560999999999993 0.12795000000000001
0.102794 -0.084329799999999996 0.126141
0.063614599999999993 -0.099350999999999995 -0.101414
0.119535 -0.098614999999999994 -0.10445400000000001
0.099260000000000001 -0.099840999999999999 -0.106364
-0.17621300000000001 -0.096858 -0.10734
-0.044966399999999997 -0.096185999999999994 -0.11987200000000001
-0.068275699999999995 -0.080607799999999993 -0.123819
-0.15282200000000001 -0.088273900000000002 -0.12352200000000001
0.227829 -0.099048999999999998 0.12612000000000001
0.28029199999999999 -0.091758900000000004 0.12542400000000001
0.21101400000000001 -0.084009799999999996 0.129966
-0.20395199999999999 -0.077687800000000001 0.128107
0.219856 0.45374399999999998 0.12698799999999999
0.166158 0.45438899999999999 0.13008600000000001
-0.097188999999999998 -0.44789800000000002 -0.102802
-0.10988000000000001 -0.44971899999999998 -0.10209799999999999
0.12905 -0.43193900000000002 -0.105685
0.10474 -0.43467699999999998 -0.105766
0.099204000000000001 -0.43736000000000003 -0.102618
0.17815400000000001 0.46999200000000002 0.12590499999999999
0.21651799999999999 0.43480799999999997 0.126529
0.094599900000000001 -0.42004399999999997 -0.102533
0.130138 -0.42325499999999999 -0.104916
0.108769 -0.42111999999999999 -0.105118
0.168956 0.42968099999999998 0.126059
0.076211799999999996 0.025952300000000001 -0.077598299999999995
0.060934599999999998 0.0254133 -0.085074399999999994
0.174733 -0.00041800399999999998 -0.095903500000000003
-0.029495299999999999 0.0493455 -0.096685499999999994
0.19323199999999999 0.037551399999999999 -0.098017499999999994
0.19853299999999999 -0.00519105 -0.096475500000000006
0.22664300000000001 0.026861300000000001 -0.091176400000000005
0.20496400000000001 -0.0077400799999999999 -0.099128499999999994
0.16697999999999999 0.045141500000000001 -0.096767500000000006
0.045088499999999997 0.0253443 -0.092333399999999996
0.20688799999999999 0.031319300000000001 -0.097786499999999998
-0.0101301 0.038162399999999999 -0.093108399999999994
0.233735 -0.0121101 -0.097813499999999998
0.0140231 0.031287299999999997 -0.095212500000000005
0.26510600000000001 0.036424400000000003 0.100198
0.26165100000000002 -0.0211872 0.100885
-0.15096499999999999 -0.0214542 0.10016799999999999
-0.0410494 -0.0083010800000000006 0.104044
0.24360799999999999 0.030400300000000002 0.102129
0.034742299999999997 0.033067300000000001 0.100504
0.24307300000000001 -0.00098700999999999997 0.101783
0.27654899999999999 0.047599500000000003 0.10093199999999999
0.054342500000000002 0.035458400000000001 0.104366
-0.14521700000000001 -0.022550199999999999 0.105868
-0.051494499999999999 -0.022737199999999999 0.10244399999999999
0.078124799999999994 0.048085500000000003 0.104252
0.021707199999999999 0.029218299999999999 0.10273400000000001
0.223548 0.030200299999999999 0.10795100000000001
-0.0211182 -0.000157002 0.11985
0.121368 -0.021858200000000001 0.124364
0.15127099999999999 -0.29172599999999999 -0.055171100000000001
0.131248 -0.29989199999999999 -0.064296099999999995
-0.213453 -0.29986600000000002 -0.070429199999999997
0.100685 -0.29661500000000002 -0.069453200000000007
0.0378714 -0.28067199999999998 -0.073153200000000002
-0.14285900000000001 -0.29786299999999999 -0.072878200000000004
0.064465599999999998 -0.27671899999999999 -0.074570200000000003
0.094227900000000003 -0.27841700000000003 -0.072341199999999994
-0.29249599999999998 -0.29787999999999998 -0.073505200000000007
0.0071630699999999997 -0.29871599999999998 -0.068695199999999998
-0.300983 -0.27813500000000002 -0.074878200000000006
-0.189746 -0.299174 -0.0736932
-0.171765 -0.29577999999999999 -0.073514200000000002
-0.33069900000000002 -0.27754299999999998 -0.074117199999999994
-0.23596300000000001 -0.28204499999999999 -0.0735402
0.17955699999999999 0.31794 0.080912300000000006
0.154475 0.310998 0.077496300000000004
0.033008299999999997 -0.29765999999999998 0.075928300000000004
-0.22148599999999999 -0.28284500000000001 0.076901300000000006
0.14738499999999999 0.32320399999999999 0.085478399999999996
0.024932200000000002 -0.29692600000000002 0.0920324
-0.152422 -0.447488 -0.088807399999999995
0.085178900000000002 -0.43892100000000001 -0.096125500000000003
-0.13208300000000001 -0.44865699999999997 -0.097128500000000006
0.15546599999999999 -0.43137199999999998 -0.099574499999999996
-0.119979 -0.44227899999999998 -0.098267499999999994
-0.095832000000000001 -0.44042900000000001 -0.098685499999999995
0.13203400000000001 -0.43570599999999998 -0.098813499999999999
0.108223 -0.43828299999999998 -0.0988705
0.219028 0.46516000000000002 0.100024
0.170517 0.47089199999999998 0.101857
0.175845 0.47070000000000001 0.111472
0.072730699999999995 -0.27526200000000001 -0.076466300000000001
0.081437800000000005 -0.27505299999999999 -0.076518299999999997
-0.17557500000000001 -0.298985 -0.081129300000000001
0.031254299999999999 -0.275005 -0.0878414
